# .PCD v0.7 - Point Cloud Data file format
VERSION 0.7
FIELDS x y z rgb
SIZE 4 4 4 4
TYPE F F F F
COUNT 1 1 1 1
WIDTH 1005
HEIGHT 1
VIEWPOINT 0 0 0 1 0 0 0
POINTS 1005
DATA ascii
0.54142207 -0.18204896 0.69259971 2.8599577e-39
0.54264802 -0.1778269 0.69255996 2.8599577e-39
0.54399103 -0.1730067 0.69198799 2.8599577e-39
0.54575282 -0.17092776 0.69356298 2.8599577e-39
0.54628873 -0.16760962 0.69203031 2.9517946e-39
0.54837716 -0.16268124 0.69207937 2.8599577e-39
0.54957241 -0.15941882 0.69282514 2.8599577e-39
0.55098569 -0.15788703 0.69302464 2.8599577e-39
0.5320639 -0.080978192 0.6911512 1.4566548e-38
0.53725624 -0.083371043 0.69122177 1.4382518e-38
0.5234428 -0.076190703 0.69197184 1.3276171e-38
0.52751416 -0.07862027 0.69154334 1.4566549e-38
0.51827848 -0.071348876 0.69240862 9.0351717e-39
0.52111065 -0.074160121 0.69260168 1.1893236e-38
0.51388752 -0.065988667 0.69235319 8.9429761e-39
0.51592076 -0.068350956 0.69335681 8.9429761e-39
0.50902921 -0.060300101 0.69274008 8.9429761e-39
0.51110262 -0.062744565 0.69239789 8.9429761e-39
0.5048911 -0.055522129 0.69217587 1.1340062e-38
0.50654376 -0.057431351 0.69240034 9.4961499e-39
0.50217795 -0.052333191 0.69218159 1.1708483e-38
0.4985697 -0.047904417 0.69347703 1.1708483e-38
0.50278699 -0.048173916 0.69211036 1.4013373e-38
0.49676728 -0.0412695 0.69277066 1.0879444e-38
0.49850401 -0.038052429 0.69153339 8.8496903e-39
0.50082421 -0.036088668 0.69282162 1.1892875e-38
0.50299263 -0.033060484 0.69166845 1.1800676e-38
0.50557756 -0.030005068 0.69121212 1.198543e-38
0.50774264 -0.027378358 0.69213146 1.1336097e-38
0.51156312 -0.022891494 0.69194156 1.1615925e-38
0.51477194 -0.019749325 0.6924026 1.1616284e-38
0.51826108 -0.016609004 0.69250625 1.1523368e-38
0.52255899 -0.012577825 0.69253403 1.1523369e-38
0.52757382 -0.0079272753 0.6927281 1.1616648e-38
0.53251278 -0.003437096 0.6924476 4.4265449e-39
0.53591555 -0.00041095354 0.69298577 2.8599577e-39
0.53823191 0.0018593268 0.69245923 2.8599577e-39
0.54080474 0.0041492451 0.6928668 2.8599577e-39
0.54346466 0.0064466018 0.69317722 2.8599577e-39
0.54614639 0.0087519083 0.69347286 2.8599577e-39
0.54853642 0.010900508 0.69214803 2.8599577e-39
0.55224532 0.013829164 0.69299221 2.8599577e-39
0.55741918 0.018065782 0.69286799 5.5328813e-39
0.56247777 0.022265567 0.69234699 1.1524454e-38
0.56520957 0.024376653 0.6931085 1.1524088e-38
0.56778687 0.026766727 0.69240546 1.1524091e-38
0.57049847 0.029163335 0.69280338 1.1432255e-38
0.57302278 0.031576354 0.69219375 1.1339698e-38
0.57584167 0.033995155 0.69248968 1.1247504e-38
0.57846421 0.036268264 0.69229114 1.1340058e-38
0.58160424 0.038466536 0.69297951 1.1063474e-38
0.58414167 0.040520754 0.69241214 1.1247505e-38
0.5874384 0.042997781 0.69219822 1.1155668e-38
0.57946163 0.046355426 0.69437546 1.4289957e-38
0.58997667 0.045500986 0.69040495 1.1708841e-38
0.59114289 0.045480981 0.69276905 1.0786889e-38
0.46285379 0.19405635 0.69333053 7.0101231e-39
0.4668147 0.19445863 0.69156718 1.0602858e-38
0.45426613 0.19966933 0.69158548 6.1821757e-39
0.45771468 0.19736543 0.69267029 6.1821757e-39
0.46152315 0.19501676 0.69194067 6.4583997e-39
0.44921517 0.20382077 0.69177061 6.1821757e-39
0.45129752 0.2016404 0.69236803 6.1821757e-39
0.4468872 0.20747483 0.69235587 6.0899801e-39
0.44338995 0.21249633 0.69275445 4.8903705e-39
0.43872643 0.21912494 0.69221628 4.1524523e-39
0.4405849 0.21642382 0.69259155 4.521232e-39
0.43484169 0.22474407 0.69151068 5.6286474e-39
0.43653482 0.22238812 0.69265622 4.7059806e-39
0.43316731 0.22739518 0.69262761 6.0899801e-39
0.42951557 0.23409314 0.69245124 6.2743699e-39
0.43080458 0.23129737 0.69249552 6.1821757e-39
0.42883253 0.237729 0.69253802 6.1821757e-39
0.42925909 0.24129963 0.69244117 6.9175645e-39
0.43092054 0.24416447 0.69274056 6.0863563e-39
0.43341899 0.24790195 0.692541 5.9012406e-39
0.43764931 0.25233084 0.69083977 5.9016007e-39
0.52214116 -0.32645565 0.69750535 2.8599577e-39
0.52169877 -0.32235101 0.69810081 2.8599577e-39
0.52136266 -0.3172783 0.69801569 2.8599577e-39
0.52150285 -0.31254405 0.69761181 2.8599577e-39
0.52276009 -0.30747476 0.69721061 2.8599577e-39
0.52403808 -0.30265614 0.69746667 2.8599577e-39
0.52487195 -0.29937243 0.69634867 2.8599577e-39
0.52558023 -0.29687336 0.6979093 2.8599577e-39
0.52676868 -0.29232663 0.69757593 2.8599577e-39
0.52804977 -0.28742737 0.69694394 6.5466646e-39
0.52934086 -0.28261176 0.69791359 1.1708845e-38
0.52988505 -0.27940995 0.69593847 1.1801041e-38
0.53044909 -0.27690539 0.69738299 1.1801041e-38
0.53112072 -0.27250212 0.69764304 1.1801041e-38
0.53178978 -0.26732698 0.69717669 1.1801041e-38
0.532462 -0.26255471 0.69728947 1.1801041e-38
0.53321218 -0.2575528 0.69780451 1.1801041e-38
0.53390753 -0.25220701 0.69742525 1.1801041e-38
0.53447318 -0.24784173 0.69711816 1.1801041e-38
0.53502989 -0.24616064 0.69916761 1.1801041e-38
0.534989 -0.24360131 0.69672048 1.1801041e-38
0.53534824 -0.24214466 0.69791681 1.1801041e-38
0.53587067 -0.23728862 0.6973505 1.1801041e-38
0.53647345 -0.2328079 0.69755375 1.1801041e-38
0.53721225 -0.2273778 0.69773978 1.1801041e-38
0.53785479 -0.22232415 0.69725734 1.1801041e-38
0.53847408 -0.21783675 0.69744164 1.1708845e-38
0.53921986 -0.21239154 0.69762194 1.1524457e-38
0.53972852 -0.20792869 0.69653088 1.1616651e-38
0.54018509 -0.20576897 0.69868708 8.9437258e-39
0.53994608 -0.20480347 0.69524556 1.1708845e-38
0.54039496 -0.20274583 0.69747686 7.8373894e-39
0.54083276 -0.19754596 0.69784719 6.2704393e-39
0.54110485 -0.19224559 0.69749403 2.8599577e-39
0.54133844 -0.1876979 0.69719106 2.8599577e-39
0.5420481 -0.1828161 0.69752055 2.8599577e-39
0.54310125 -0.17783946 0.6978249 2.8599577e-39
0.54429257 -0.17280346 0.69861776 2.8599577e-39
0.54546708 -0.1716038 0.69560528 2.8599577e-39
0.54499209 -0.16949414 0.69871622 2.8599577e-39
0.546794 -0.16703178 0.69639993 2.8599577e-39
0.54777044 -0.16257241 0.69814461 2.8599577e-39
0.54942125 -0.15942623 0.69803077 2.8599577e-39
0.55206144 -0.15779863 0.69823253 2.8599577e-39
0.53784019 -0.082963869 0.69849408 1.8070342e-38
0.54133087 -0.082355998 0.69845086 1.9729498e-38
0.5245508 -0.07641086 0.69677806 1.1432258e-38
0.52798533 -0.078863382 0.69846231 1.1524452e-38
0.5194208 -0.071365274 0.69741136 8.9429761e-39
0.52181441 -0.073801883 0.69794589 1.0418106e-38
0.51465863 -0.066517077 0.69634867 8.9429761e-39
0.51695794 -0.068286598 0.69792747 9.5883455e-39
0.55777854 -0.066484988 0.69990689 1.9821696e-38
0.50927222 -0.060083963 0.69619846 8.9429761e-39
0.51273668 -0.063251205 0.69772255 1.0233715e-38
0.51575106 -0.064835705 0.69988078 1.1801041e-38
0.50716937 -0.057328358 0.69771111 9.957128e-39
0.51047611 -0.059943482 0.69956893 1.0325911e-38
0.50227028 -0.051812071 0.69729811 1.1708845e-38
0.49836782 -0.047058992 0.69774055 1.1617007e-38
0.49796733 -0.043050885 0.6972844 1.161773e-38
0.50011021 -0.041350238 0.69888842 1.1341144e-38
0.49391121 -0.038700551 0.69745141 1.1432257e-38
0.49923241 -0.039195724 0.69633979 9.3110285e-39
0.50166667 -0.037394878 0.69830799 1.0877996e-38
0.50375307 -0.032829762 0.69756532 1.2354214e-38
0.50541615 -0.03116082 0.69902527 1.1801041e-38
0.50733376 -0.027456449 0.69804287 1.2999584e-38
0.510405 -0.025355037 0.6996665 1.4290323e-38
0.51260692 -0.022497851 0.69790041 1.2907387e-38
0.51569772 -0.021035712 0.69995332 1.4289961e-38
0.51749945 -0.01815819 0.6975069 1.2538603e-38
0.5209415 -0.015230036 0.69786739 1.253824e-38
0.52345759 -0.01278511 0.69740969 1.2169822e-38
0.52596736 -0.011175222 0.69864571 1.3091779e-38
0.52818865 -0.0087032337 0.69747579 1.2907388e-38
0.53114504 -0.0066604749 0.69827849 1.0787274e-38
0.56332755 -0.0067506451 0.69780195 1.2815949e-38
0.53326684 -0.0043703602 0.69773263 3.6893582e-39
0.53668481 -0.0014332748 0.6980738 2.9521547e-39
0.53915817 0.0015183617 0.69627279 2.8599577e-39
0.54231459 0.0032303019 0.69780207 2.8599577e-39
0.5611822 0.00363327 0.69676602 4.8894064e-39
0.54417109 0.0056955731 0.69602633 2.8599577e-39
0.54734528 0.0075430414 0.69794118 2.8599577e-39
0.54952967 0.010306221 0.69664359 2.8599577e-39
0.55277717 0.012543434 0.69791788 3.0443559e-39
0.55642104 0.014565374 0.69912624 3.9666836e-39
0.55820554 0.017032368 0.69812816 7.8373894e-39
0.56098735 0.01924899 0.69837952 1.0510303e-38
0.56369632 0.022000799 0.69749278 1.0325911e-38
0.56659925 0.024054948 0.69787532 1.0418106e-38
0.56870919 0.026595855 0.69676399 9.8645723e-39
0.57135981 0.028081415 0.69839883 9.8649324e-39
0.57387376 0.030748576 0.69739562 9.3117586e-39
0.57691556 0.033163328 0.69742304 9.3117586e-39
0.57960498 0.035593238 0.69665003 9.4039542e-39
0.58245999 0.037489045 0.69735175 9.219563e-39
0.58504641 0.038839675 0.69880259 9.0351717e-39
0.5875625 0.041312542 0.69704038 9.219563e-39
0.59125805 0.043782532 0.69761527 9.1273674e-39
0.59231019 0.045461129 0.69512606 9.4039542e-39
0.46281949 0.19437592 0.6976561 8.7600254e-39
0.46557838 0.19467981 0.69856715 9.2206434e-39
0.4539637 0.19921145 0.6979804 5.9974215e-39
0.45795736 0.19635114 0.6984607 6.6406217e-39
0.47007111 0.19671521 0.69943941 8.4812749e-39
0.44957396 0.20427735 0.69680023 6.1821757e-39
0.45136571 0.20186651 0.69741523 6.0896185e-39
0.44732562 0.20759971 0.69734371 6.0899787e-39
0.44344324 0.21306381 0.69771087 6.0899787e-39
0.44523454 0.21066488 0.69807917 6.0896185e-39
0.46147022 0.21271434 0.69733262 6.4414019e-39
0.43933579 0.21894222 0.69719553 6.0899787e-39
0.44109216 0.21638706 0.69750851 6.0899787e-39
0.43700123 0.22242489 0.69734824 6.0896199e-39
0.43302545 0.22788878 0.69767362 6.0896185e-39
0.43506801 0.22510205 0.69763958 6.1821757e-39
0.42986375 0.23353843 0.69578844 6.1821757e-39
0.43066478 0.23211317 0.69771254 6.0896171e-39
0.42936951 0.23723637 0.69789916 5.9963369e-39
0.42983222 0.24097516 0.69713783 6.1818156e-39
0.43073639 0.24306014 0.69746512 6.1814498e-39
0.43295535 0.24735346 0.69797575 5.7175752e-39
0.43724701 0.25150841 0.6979838 5.6242922e-39
0.44216853 0.25447029 0.69909924 5.4384562e-39
0.52240252 -0.32612351 0.70339894 2.5830037e-39
0.52203178 -0.32268807 0.70265037 2.8599577e-39
0.52220112 -0.31749851 0.70242423 2.8599577e-39
0.52231503 -0.31226897 0.702272 2.8599577e-39
0.52305651 -0.30756336 0.70252538 2.8599577e-39
0.52430224 -0.30265024 0.70228904 2.8599577e-39
0.52508271 -0.30025762 0.7048018 2.8599577e-39
0.52487713 -0.29991663 0.70009989 2.8599577e-39
0.52565891 -0.29752046 0.70261872 2.8599577e-39
0.52691185 -0.29271799 0.70265496 2.8599577e-39
0.52830285 -0.28729111 0.70219785 7.0076372e-39
0.52947301 -0.2829836 0.7027266 1.1708845e-38
0.53009218 -0.28075576 0.70315504 1.1801041e-38
0.53079593 -0.27787772 0.70250452 1.1801041e-38
0.5318414 -0.27234715 0.70272028 1.1801041e-38
0.53247368 -0.26753244 0.70226347 1.1801041e-38
0.53326643 -0.26257676 0.70271802 1.1801041e-38
0.53402257 -0.25722784 0.70266032 1.1801041e-38
0.53453755 -0.25292003 0.70202279 1.1801041e-38
0.53511125 -0.25124967 0.70403349 1.1801041e-38
0.53538555 -0.24746773 0.70261341 1.1801041e-38
0.53597367 -0.24237779 0.70260048 1.1801041e-38
0.5364517 -0.23783422 0.70228928 1.1801041e-38
0.53713888 -0.23248367 0.70281613 1.1801041e-38
0.53767592 -0.22740659 0.70247352 1.1801041e-38
0.53823978 -0.22283375 0.70245135 1.1801041e-38
0.53901029 -0.21777263 0.70272493 1.041812e-38
0.53952241 -0.212722 0.70203406 4.9797159e-39
0.53989762 -0.20937304 0.70113498 6.6388589e-39
0.54032665 -0.20721565 0.7029435 3.9659339e-39
0.54094547 -0.20251474 0.70285571 2.8599577e-39
0.54146463 -0.19770317 0.70201015 2.8599577e-39
0.54191279 -0.19252449 0.702447 2.8599577e-39
0.54235423 -0.18732151 0.70235294 2.8599577e-39
0.54331285 -0.1822865 0.70264637 2.8599577e-39
0.54407352 -0.17752427 0.70215356 2.8599577e-39
0.54482388 -0.17356277 0.70224589 2.8599577e-39
0.54556829 -0.17145324 0.70335889 2.8599577e-39
0.54604977 -0.16756636 0.70233172 2.8599577e-39
0.54767144 -0.1623452 0.70274448 2.8599577e-39
0.5502423 -0.16017908 0.70443225 2.8599577e-39
0.5528788 -0.15820058 0.70252085 2.8599577e-39
0.55666178 -0.15607838 0.70378059 2.8599577e-39
0.53318191 -0.081465214 0.70034385 1.982206e-38
0.53840244 -0.08003366 0.7047199 1.7793396e-38
0.52478576 -0.076155551 0.70022166 1.180068e-38
0.5279268 -0.077265359 0.70242113 1.604204e-38
0.53235722 -0.078229651 0.70390844 1.7609365e-38
0.53600574 -0.079871722 0.70411062 1.8070343e-38
0.52319539 -0.072294913 0.70172077 1.3737149e-38
0.52708203 -0.073603511 0.70371002 1.7240583e-38
0.53075236 -0.074018225 0.70476782 1.4382155e-38
0.54809946 -0.071735375 0.70302677 1.6501566e-38
0.55068898 -0.072066866 0.70139319 1.8991934e-38
0.51873565 -0.067417085 0.70084298 1.1801041e-38
0.5220241 -0.068261132 0.70300102 1.1801041e-38
0.52517128 -0.069764562 0.70468456 1.3644953e-38
0.54914576 -0.067056194 0.70458382 1.8438041e-38
0.55253851 -0.067445226 0.70277417 1.6132783e-38
0.55940062 -0.065007515 0.70036048 1.871571e-38
0.51428455 -0.061655834 0.70062363 1.1247867e-38
0.51751143 -0.062898926 0.70249349 1.1616649e-38
0.52089715 -0.064168312 0.70416719 1.2077628e-38
0.55293423 -0.063450485 0.70474577 1.8623153e-38
0.55705082 -0.063069738 0.70329577 1.4841687e-38
0.56153494 -0.061480097 0.70265883 1.6687054e-38
0.50831074 -0.056071546 0.70191854 1.0786889e-38
0.51223278 -0.058915716 0.7027933 1.0602497e-38
0.56304705 -0.057938535 0.70449162 1.189329e-38
0.56562316 -0.057373561 0.70378542 7.6545242e-39
0.50341338 -0.051397931 0.70180625 1.3829344e-38
0.50644743 -0.052271172 0.70385671 1.4381797e-38
0.56806582 -0.054344684 0.7044903 5.9031884e-39
0.57245409 -0.05235213 0.70284545 4.889405e-39
0.49935037 -0.046388116 0.70121038 1.2631522e-38
0.50227427 -0.04732269 0.70338923 1.5488504e-38
0.50502574 -0.048779421 0.70456874 1.5026803e-38
0.57415837 -0.048410058 0.70447397 5.1660003e-39
0.57755333 -0.046251357 0.70407665 4.9816034e-39
0.5016855 -0.042730317 0.7026149 1.0509939e-38
0.5035637 -0.037945401 0.70209754 9.8642065e-39
0.50573856 -0.035909068 0.70441729 1.0786889e-38
0.58433247 -0.0394325 0.70459026 4.889405e-39
0.50456935 -0.034058832 0.70020115 1.1801041e-38
0.50719881 -0.032571994 0.70282316 1.2077626e-38
0.51256353 -0.031848405 0.70470941 1.7793389e-38
0.51803768 -0.031700157 0.70458555 1.9360352e-38
0.52301699 -0.032075062 0.70478964 1.7701561e-38
0.59417367 -0.031965852 0.70284081 1.1156473e-38
0.50857919 -0.028862182 0.70110315 1.3460556e-38
0.51265776 -0.027577937 0.70283812 1.4198126e-38
0.51705885 -0.027170647 0.70372677 1.8254366e-38
0.52188897 -0.027176829 0.70408672 1.9176324e-38
0.52595621 -0.027026776 0.7046383 1.8070338e-38
0.59448642 -0.028675329 0.70493442 1.4934998e-38
0.59731919 -0.02721332 0.7040962 1.7977429e-38
0.600169 -0.025742546 0.70325303 1.9452916e-38
0.51391894 -0.023939362 0.70112109 1.3091778e-38
0.51731539 -0.022523949 0.70226038 1.4474714e-38
0.5222792 -0.022671772 0.70356631 1.926852e-38
0.52738595 -0.022847662 0.70423883 1.8346563e-38
0.53074205 -0.021435883 0.70478129 1.834693e-38
0.59896809 -0.024029497 0.70464188 1.7331694e-38
0.60313112 -0.022618508 0.7031166 1.9360719e-38
0.51883352 -0.019236002 0.70071113 1.3460558e-38
0.52280509 -0.017617319 0.70190656 1.4013733e-38
0.52776569 -0.017392593 0.7033565 1.7517168e-38
0.53249514 -0.017390002 0.70447153 1.834693e-38
0.60309148 -0.0193193 0.70479906 1.6870714e-38
0.60763669 -0.017893299 0.70328063 1.8992297e-38
0.61163563 -0.01641535 0.70241559 2.0467068e-38
0.52475661 -0.013760049 0.70026058 1.3644953e-38
0.52791286 -0.012491396 0.7013678 1.2354214e-38
0.5322057 -0.012527329 0.70336348 1.7056197e-38
0.53673017 -0.012042985 0.7044099 1.364572e-38
0.54010749 -0.011029784 0.70499527 4.151456e-39
0.60847104 -0.012178373 0.70478553 2.0282676e-38
0.61243331 -0.01355293 0.70335662 1.9913892e-38
0.616678 -0.011637245 0.70286727 2.0283039e-38
0.53299308 -0.0081947241 0.70155966 6.6392442e-39
0.53751826 -0.0079282857 0.70338947 5.165252e-39
0.54136813 -0.0076968283 0.70436496 4.2436586e-39
0.60952532 -0.0081350747 0.70481229 2.028267e-38
0.61286485 -0.0090364162 0.70471025 1.936071e-38
0.61756796 -0.0083441623 0.70432526 1.8991938e-38
0.53790987 -0.0033723102 0.70139247 3.5979067e-39
0.54251564 -0.0026677449 0.70314109 4.1514588e-39
0.54646665 -0.0013383434 0.70427716 4.151456e-39
0.57040733 -0.003980197 0.70490944 1.0320147e-38
0.5432893 0.0017614923 0.7014026 3.2287514e-39
0.54743737 0.0026450378 0.7030434 3.8748635e-39
0.55100697 0.0036392144 0.70429134 3.9667004e-39
0.54867196 0.0060919244 0.7014733 3.5979067e-39
0.55265951 0.0072194957 0.70262086 3.874502e-39
0.55665106 0.0083522098 0.7037937 3.7823035e-39
0.55320245 0.010307255 0.70069724 3.874502e-39
0.55803359 0.011967313 0.70206785 4.6116845e-39
0.56184155 0.013774175 0.70351398 1.0418116e-38
0.56312913 0.017723847 0.7015087 1.097128e-38
0.56712073 0.018656859 0.70379972 1.1893236e-38
0.5727607 0.019630283 0.70493513 1.9453278e-38
0.57577932 0.019624336 0.70497888 1.9176691e-38
0.61292279 0.019549541 0.70464492 1.4935692e-38
0.617419 0.018719207 0.70326227 1.4843496e-38
0.56807745 0.022198293 0.70139176 1.0602497e-38
0.57233137 0.022949222 0.70373279 1.4843496e-38
0.57733202 0.022793837 0.70434231 1.9176691e-38
0.58241534 0.02279718 0.70441312 1.5673257e-38
0.58717632 0.023120031 0.7046662 1.4382518e-38
0.59381217 0.023340302 0.70490313 1.5120083e-38
0.59734327 0.023881773 0.70488787 1.5120083e-38
0.60192209 0.023618724 0.70491731 1.5120083e-38
0.60796404 0.023137672 0.70462817 1.5581061e-38
0.61224192 0.022816695 0.70336896 1.5027888e-38
0.57341725 0.027151663 0.70167303 1.1432258e-38
0.57751215 0.027757823 0.70320302 1.7148387e-38
0.58221751 0.027580535 0.70341665 1.8162539e-38
0.58681405 0.02759861 0.70411187 1.4382518e-38
0.5931356 0.027622605 0.7048772 1.5120083e-38
0.59797895 0.02764863 0.70456052 1.5304475e-38
0.60224777 0.027668739 0.70454264 1.5120083e-38
0.60625231 0.027281843 0.70424742 1.5765453e-38
0.61156088 0.026906723 0.70127082 1.5027888e-38
0.57810414 0.031746522 0.70156449 1.2262019e-38
0.58248526 0.032599919 0.70256943 1.7424974e-38
0.58711243 0.032402672 0.70375913 1.7609365e-38
0.59050959 0.032424703 0.70467323 1.6318626e-38
0.59811574 0.032168038 0.70464766 1.5765453e-38
0.60205305 0.032533817 0.70415652 1.5765451e-38
0.60740566 0.03178253 0.70108336 1.5765451e-38
0.58321291 0.036222868 0.70148855 1.3828619e-38
0.58763254 0.037384372 0.70265138 1.6410818e-38
0.59235615 0.037264712 0.7042653 1.7517168e-38
0.59793341 0.037343193 0.70338589 1.9176329e-38
0.58841789 0.040464021 0.70097983 1.3091778e-38
0.59172994 0.041304525 0.70201015 1.4658739e-38
0.4541387 0.19947118 0.70204884 4.5132502e-39
0.4575552 0.197338 0.70268714 4.5107181e-39
0.46246338 0.19582762 0.70201206 7.2823716e-39
0.46643263 0.19640796 0.70336759 6.7248594e-39
0.47178099 0.19859551 0.70321798 8.1099658e-39
0.44966376 0.20472142 0.70007908 5.8119442e-39
0.4518522 0.20231453 0.70292848 4.4203287e-39
0.44805396 0.20785369 0.70213348 4.6061703e-39
0.45010793 0.20551313 0.70447993 3.8646242e-39
0.44390556 0.21380134 0.70189238 4.6994492e-39
0.44580802 0.21157928 0.7031455 4.1426601e-39
0.43976727 0.21926524 0.70122004 4.9774836e-39
0.44180852 0.217271 0.70300072 4.2355759e-39
0.43779632 0.22269718 0.70253527 4.4206917e-39
0.44021165 0.22060293 0.70477045 4.0486539e-39
0.4338609 0.22804356 0.70245606 4.3288576e-39
0.43564567 0.22601682 0.70356083 3.77243e-39
0.43138739 0.23248906 0.70268464 4.2352172e-39
0.4297663 0.23739944 0.70112401 3.9579059e-39
0.43091926 0.23762134 0.70328057 3.77243e-39
0.43116301 0.24226378 0.70269966 4.0497385e-39
0.43308669 0.24649982 0.70239854 4.1430202e-39
0.4370853 0.24968147 0.70337987 3.8649872e-39
0.43835339 0.2512159 0.7017765 4.4199686e-39
0.44279194 0.25354305 0.70259368 4.32741e-39
0.44629222 0.2543565 0.70408344 3.9564597e-39
0.52661973 -0.33022261 0.70771796 1.3837052e-39
0.52411145 -0.3271594 0.70690972 1.5684608e-39
0.5257414 -0.32860994 0.70887136 1.2918697e-39
0.52249485 -0.32273149 0.7068159 2.6755622e-39
0.52297568 -0.31753606 0.70781261 2.8606751e-39
0.52323472 -0.31245494 0.70699841 2.8603164e-39
0.52375019 -0.30740076 0.70779932 2.8599577e-39
0.52450085 -0.30295864 0.70656002 2.8599577e-39
0.52517134 -0.30124402 0.70880026 2.861394e-39
0.5259884 -0.29757863 0.70731425 2.8603164e-39
0.52732044 -0.29273549 0.70761788 2.861394e-39
0.52875942 -0.28739196 0.70764929 4.2450333e-39
0.52967316 -0.28375041 0.70700258 1.143298e-38
0.53034997 -0.281331 0.70726794 1.0421713e-38
0.53130329 -0.27766162 0.70775127 1.051355e-38
0.53230768 -0.27249908 0.70736712 1.0145849e-38
0.53323048 -0.26751134 0.70770931 1.0789415e-38
0.53401488 -0.26220495 0.70761484 1.0145849e-38
0.5345664 -0.25804752 0.70720851 1.069758e-38
0.53507912 -0.2562393 0.7090075 9.8699841e-39
0.53538978 -0.25249931 0.70755154 1.1341146e-38
0.53602028 -0.24718904 0.70724398 1.0789415e-38
0.53659713 -0.24277523 0.70766306 1.106528e-38
0.53719282 -0.23761019 0.70768726 1.1524817e-38
0.53773373 -0.23224917 0.70712209 1.1341146e-38
0.53835762 -0.22747783 0.70773488 1.1432981e-38
0.53895175 -0.22225201 0.70771116 1.1617009e-38
0.53940934 -0.21746291 0.7069481 8.3905576e-39
0.53980905 -0.21352591 0.70620012 3.0443461e-39
0.54025787 -0.21189804 0.70818806 2.8603164e-39
0.54080015 -0.20728917 0.70780307 2.8599577e-39
0.54131567 -0.20250116 0.70696801 2.8599577e-39
0.54206324 -0.19737925 0.70764142 2.8599577e-39
0.54269648 -0.1922977 0.70784134 2.8599577e-39
0.54348153 -0.18737195 0.70714867 2.8599577e-39
0.54430479 -0.18311939 0.70667255 2.8599577e-39
0.54554737 -0.18156759 0.70888793 2.8603164e-39
0.54496491 -0.17913435 0.70618582 2.8599577e-39
0.54599577 -0.17734338 0.7076447 2.8599577e-39
0.54694515 -0.17260329 0.7073648 2.8599577e-39
0.54811037 -0.1674457 0.70736772 2.8599577e-39
0.54902583 -0.16306269 0.70719665 2.8599577e-39
0.55045217 -0.16119723 0.70826775 2.8599577e-39
0.55320436 -0.15887442 0.7076869 2.8599577e-39
0.55726784 -0.1564153 0.70753765 2.8599577e-39
0.55965149 -0.15497413 0.70745051 2.8599577e-39
0.56032938 -0.15484929 0.70906502 2.8599577e-39
0.53411186 -0.076547548 0.7053324 1.7332417e-38
0.53745854 -0.076787263 0.70594001 1.7332415e-38
0.54087859 -0.076269984 0.70647287 1.9361082e-38
0.52800786 -0.07239563 0.70509815 1.5672535e-38
0.53264892 -0.072123818 0.70628709 1.4842769e-38
0.53739762 -0.072086759 0.70724964 1.9453275e-38
0.54112238 -0.072380789 0.70739299 1.98217e-38
0.52438569 -0.0665951 0.70572442 1.1801041e-38
0.52753991 -0.067351647 0.70628667 1.7608639e-38
0.53310257 -0.067206249 0.70664626 1.8623514e-38
0.53751111 -0.067516424 0.70710343 1.9176322e-38
0.5418129 -0.067635283 0.70743459 1.9545472e-38
0.54645658 -0.067268133 0.70593482 1.9268524e-38
0.51781857 -0.060054563 0.70580727 1.3183975e-38
0.52248573 -0.062057391 0.70604557 1.3644953e-38
0.52755141 -0.062231824 0.70649654 1.7793394e-38
0.53240621 -0.062602825 0.70631737 1.9822055e-38
0.53721583 -0.062638827 0.70649993 1.9176688e-38
0.54236054 -0.062519558 0.70704299 1.908413e-38
0.54743564 -0.061883636 0.70727503 1.9637669e-38
0.55141628 -0.061660089 0.70665121 1.9913896e-38
0.5556798 -0.061298862 0.70500565 1.8807187e-38
0.50994605 -0.055031329 0.70528591 1.2538606e-38
0.51322907 -0.056516752 0.70610332 1.2538606e-38
0.51734966 -0.056969672 0.70643663 1.5120083e-38
0.52191281 -0.057282388 0.70653272 1.5212279e-38
0.527587 -0.057684284 0.70644981 1.5488866e-38
0.53262055 -0.057615411 0.70621461 1.7885951e-38
0.53720742 -0.057408527 0.70604014 1.9545111e-38
0.54287076 -0.057217829 0.70639199 1.89001e-38
0.5480926 -0.057527661 0.7071479 1.9268882e-38
0.55296701 -0.057860941 0.70716637 2.0006092e-38
0.55741727 -0.057428341 0.7065348 1.9268522e-38
0.56128234 -0.055884223 0.70625752 1.5765849e-38
0.50881404 -0.051633228 0.70583731 1.1798871e-38
0.51253009 -0.052121077 0.70674086 1.4843136e-38
0.51754385 -0.05248569 0.70617634 1.5027888e-38
0.52207744 -0.052775972 0.70631397 1.5027888e-38
0.52767354 -0.052384388 0.70633602 1.5212279e-38
0.53237361 -0.05237342 0.70618343 1.539667e-38
0.53745663 -0.052280862 0.70594317 1.7332778e-38
0.54272276 -0.052844975 0.70587623 1.9452915e-38
0.54708153 -0.052689452 0.70627284 1.9084134e-38
0.55227542 -0.052410126 0.70680451 1.9176328e-38
0.55754757 -0.052126281 0.70705712 1.9821696e-38
0.56294441 -0.052548282 0.70655251 1.8439148e-38
0.567626 -0.051614571 0.70584822 2.0190842e-38
0.50448036 -0.045723774 0.70532042 1.1798143e-38
0.50771213 -0.047194276 0.70675683 1.2444239e-38
0.512757 -0.047833055 0.70714092 1.6133875e-38
0.51792145 -0.047583222 0.70584708 1.5212279e-38
0.52240139 -0.047533039 0.7058838 1.5027888e-38
0.52795261 -0.047108814 0.7059691 1.5027888e-38
0.53261715 -0.047387276 0.70604253 1.5120083e-38
0.53748155 -0.047689483 0.70591098 1.539667e-38
0.54242665 -0.047999498 0.70572561 1.742461e-38
0.5471313 -0.047502186 0.70590258 1.9176328e-38
0.55271488 -0.047041345 0.70625395 1.9453276e-38
0.55772144 -0.047537018 0.70668453 1.9453278e-38
0.56241453 -0.047390409 0.70680916 1.9914256e-38
0.56753612 -0.04791363 0.70636743 1.8716087e-38
0.57174587 -0.047240991 0.70591772 5.9035527e-39
0.57561761 -0.04529126 0.70517343 5.0738019e-39
0.50392646 -0.042376526 0.70608413 1.1154582e-38
0.50728106 -0.043134861 0.7072717 1.7055467e-38
0.51243347 -0.042159002 0.70709604 1.8162539e-38
0.51761818 -0.042401016 0.70590025 1.6318626e-38
0.52268624 -0.042278681 0.70550519 1.5120083e-38
0.5276891 -0.042773731 0.70560831 1.5027888e-38
0.5321883 -0.042617034 0.70567632 1.5027888e-38
0.53780323 -0.042565033 0.70571989 1.5120083e-38
0.54246807 -0.04261994 0.70567262 1.5212279e-38
0.54718697 -0.042103216 0.70583218 1.6410459e-38
0.55282682 -0.042400289 0.7061137 1.9360719e-38
0.55749375 -0.042641338 0.70643967 1.9453276e-38
0.56223625 -0.042888813 0.70672154 1.8992307e-38
0.56738186 -0.042723566 0.70673054 9.2214772e-39
0.57223278 -0.04218749 0.70655829 4.981602e-39
0.57785165 -0.041890394 0.70593053 4.9816062e-39
0.58152449 -0.040837333 0.70547104 5.0738019e-39
0.50441945 -0.039017908 0.70540428 9.0351717e-39
0.50759143 -0.03785916 0.70624638 1.7148384e-38
0.51279581 -0.0373809 0.70607042 1.9360715e-38
0.51743793 -0.037236776 0.70578867 1.8439126e-38
0.52292609 -0.037769571 0.70518661 1.5120083e-38
0.5277068 -0.037584294 0.70523065 1.5120083e-38
0.5322476 -0.037491851 0.70529032 1.5027888e-38
0.53769249 -0.037309602 0.70539159 1.5027888e-38
0.54253268 -0.03724226 0.70558995 1.5027888e-38
0.54720163 -0.037470918 0.70581347 1.5027888e-38
0.55288351 -0.037751179 0.70604295 1.7056192e-38
0.55761427 -0.03798179 0.70629007 1.9084132e-38
0.5624786 -0.037442409 0.70642352 9.2218331e-39
0.56731188 -0.03734811 0.70646524 4.889405e-39
0.5725646 -0.037164953 0.7064023 4.8894064e-39
0.57772201 -0.037425745 0.70633107 4.8894064e-39
0.5816859 -0.037308544 0.70626152 4.8894064e-39
0.58505058 -0.03620347 0.70619458 4.8894064e-39
0.50989199 -0.03408464 0.7053597 1.9545109e-38
0.51182741 -0.033689331 0.7052123 1.9453272e-38
0.51731342 -0.034460343 0.70524812 1.9360718e-38
0.52364391 -0.033774469 0.70506054 1.6779603e-38
0.52752519 -0.03237151 0.70511609 1.5212279e-38
0.5322482 -0.03215326 0.70528948 1.5120083e-38
0.53781015 -0.032407455 0.7054866 1.5027888e-38
0.54249531 -0.032622263 0.70563769 1.5120083e-38
0.54720718 -0.032837376 0.70580643 1.5027888e-38
0.55305755 -0.032791384 0.70607102 1.4566918e-38
0.55765212 -0.032532796 0.70624316 9.3136588e-39
0.56259829 -0.031979527 0.7062763 4.9812419e-39
0.56763369 -0.032211971 0.70624828 4.8894064e-39
0.57270879 -0.032445908 0.70622814 4.8894064e-39
0.57781297 -0.032680672 0.70622224 4.8894064e-39
0.58267742 -0.032703608 0.70624989 4.8894064e-39
0.58708537 -0.033104539 0.70624667 4.8894064e-39
0.590855 -0.031706765 0.70549619 7.7463611e-39
0.52812254 -0.027784437 0.70512533 1.7517168e-38
0.53213161 -0.027565666 0.70544147 1.5212279e-38
0.53765833 -0.027795175 0.70568252 1.5027888e-38
0.54268044 -0.027562069 0.70593035 1.5027888e-38
0.54717404 -0.027629487 0.70607233 1.5120085e-38
0.55261278 -0.027435511 0.70615828 9.8664528e-39
0.55761212 -0.027075907 0.70629287 4.889405e-39
0.5625546 -0.027281703 0.70633006 4.8894064e-39
0.56756777 -0.027492026 0.70632863 4.8894064e-39
0.57265985 -0.027707193 0.70628721 4.8894064e-39
0.57773703 -0.027919099 0.70631307 4.8894064e-39
0.58305752 -0.027821934 0.70635074 4.8894064e-39
0.58799684 -0.027546901 0.70639884 4.889405e-39
0.59191519 -0.026583409 0.70646292 6.9169634e-39
0.59612769 -0.025502376 0.7054792 1.6040598e-38
0.53268403 -0.022847898 0.70527029 1.7793757e-38
0.53760988 -0.022428246 0.7057448 1.5212279e-38
0.54290861 -0.022409458 0.70611989 1.4751305e-38
0.54769385 -0.022021214 0.70642024 9.2210918e-39
0.55246085 -0.022196785 0.70657265 5.0737935e-39
0.55748487 -0.022391623 0.70645094 4.9816034e-39
0.56252646 -0.022585919 0.70636469 4.8894064e-39
0.56752533 -0.022775037 0.70638037 4.8894064e-39
0.57258636 -0.022967244 0.70637602 4.8894064e-39
0.57781792 -0.022712097 0.70639133 4.8894064e-39
0.58257788 -0.022330847 0.70645154 4.8894064e-39
0.58791035 -0.021946238 0.70650059 4.8894064e-39
0.59202981 -0.022094538 0.70657396 4.889405e-39
0.59605348 -0.021920765 0.7065466 7.2857389e-39
0.60051757 -0.02083217 0.70530677 1.6132789e-38
0.52667576 -0.01668554 0.70566672 1.5396306e-38
0.53428614 -0.018502116 0.70510584 1.834693e-38
0.53786111 -0.017084979 0.70542049 1.7978151e-38
0.54314542 -0.017244782 0.70604146 9.2214463e-39
0.54770619 -0.017388225 0.70640469 5.0734347e-39
0.55249196 -0.017546531 0.70653343 4.8890449e-39
0.5573929 -0.017712072 0.70656514 4.8894078e-39
0.56248969 -0.017890001 0.70640993 4.8894064e-39
0.56750101 -0.018060107 0.70640999 4.8894064e-39
0.57253945 -0.017441621 0.70643264 4.8894064e-39
0.57749605 -0.017266912 0.70642644 4.8894064e-39
0.58272076 -0.016982635 0.706505 4.889405e-39
0.58783621 -0.017147029 0.70658773 4.889405e-39
0.59197164 -0.017280273 0.70664191 4.889405e-39
0.59745961 -0.017466661 0.70638973 1.051184e-38
0.60298896 -0.016587293 0.70573527 2.000645e-38
0.53921288 -0.013552939 0.70532346 1.0696579e-38
0.54244375 -0.012616169 0.70570356 4.7050081e-39
0.5468328 -0.012731595 0.70628035 4.7050109e-39
0.5525623 -0.012898715 0.70644546 4.8890477e-39
0.55745918 -0.01304422 0.70648271 4.8890463e-39
0.56243938 -0.012411716 0.70647174 4.8894064e-39
0.56747544 -0.012560075 0.70644116 4.8894064e-39
0.57255346 -0.011920582 0.70641583 4.8894064e-39
0.57773787 -0.012071724 0.70631212 4.9812433e-39
0.58285117 -0.012217019 0.70635021 4.889405e-39
0.58792216 -0.012358532 0.7064867 4.889405e-39
0.59205717 -0.012475412 0.70654207 7.4704959e-39
0.59653813 -0.012612202 0.70622998 1.8623533e-38
0.60246348 -0.012800498 0.70552373 2.0190477e-38
0.60710961 -0.014569934 0.70510834 2.0190479e-38
0.54320157 -0.0084131528 0.70535171 4.2436572e-39
0.54703569 -0.0073397863 0.70602316 4.5206127e-39
0.55246532 -0.0074647251 0.70656699 4.8890463e-39
0.55741096 -0.0075904708 0.70654267 4.9812433e-39
0.56240362 -0.0069352933 0.70651597 4.8894064e-39
0.56749195 -0.0070626824 0.70642114 4.8894078e-39
0.57264066 -0.0071920166 0.70631051 4.9812433e-39
0.57783341 -0.0073225028 0.70619768 4.9812433e-39
0.58242184 -0.0076641729 0.70615852 4.889405e-39
0.58735436 -0.0073567 0.70623714 7.562323e-39
0.592305 -0.0076775611 0.70625281 1.8255107e-38
0.59760618 -0.0078090364 0.70622003 2.0006086e-38
0.60346949 -0.0079680076 0.70559305 2.0004987e-38
0.60709435 -0.0080680093 0.70512563 2.019047e-38
0.61249548 -0.006568349 0.70512736 1.9268514e-38
0.61760843 -0.005859354 0.70550531 1.9729863e-38
0.6217767 -0.0051269569 0.70575243 1.982206e-38
0.54154652 -0.0015382157 0.70725524 7.9896882e-39
0.54857451 -0.0022848747 0.70555294 4.151456e-39
0.55251032 -0.0020388605 0.70651001 4.7046494e-39
0.55728531 -0.0021339636 0.70669872 4.9812433e-39
0.56233621 -0.0022400627 0.70659894 4.9812433e-39
0.56754965 -0.0023523748 0.7063508 4.9812433e-39
0.57274765 -0.0024628474 0.70618123 4.9812433e-39
0.57793492 -0.0025719081 0.7060762 4.9812419e-39
0.58212 -0.0026599132 0.70599073 6.0872125e-39
0.58732015 -0.0027675077 0.70597142 1.3553143e-38
0.59256601 -0.0028761968 0.70594817 1.6687409e-38
0.59776473 -0.0029817629 0.70603627 1.9176324e-38
0.60320741 -0.0030971307 0.70589328 2.0097916e-38
0.60790545 -0.0032031795 0.70542884 1.9729131e-38
0.61267883 -0.0023860268 0.70587373 1.9268517e-38
0.61727118 -0.002357672 0.70618892 1.9637303e-38
0.62227744 -0.0018370074 0.70642108 1.9729862e-38
0.5532735 0.0023976418 0.70586073 4.1510973e-39
0.55722696 0.0025393434 0.70677108 4.7968464e-39
0.56234294 0.0024513591 0.70659077 4.9816034e-39
0.56757766 0.0023599954 0.70631665 4.9816034e-39
0.57284153 0.0022685667 0.70606786 4.9812433e-39
0.57805139 0.0021798629 0.70593673 6.7325721e-39
0.58222795 0.0021091977 0.70586246 1.3829726e-38
0.58748311 0.0020204545 0.70577955 1.521228e-38
0.59278506 0.0019308903 0.70569259 1.5212279e-38
0.59699732 0.0018608902 0.70569772 1.6134234e-38
0.60237116 0.0020982684 0.70587397 1.9176329e-38
0.60733199 0.0025066894 0.70608109 1.9176687e-38
0.61197811 0.0029307529 0.7066921 1.9268522e-38
0.61716586 0.0031844424 0.70722252 1.9452551e-38
0.62170857 0.0031130721 0.70705271 1.9268158e-38
0.55776274 0.0066718445 0.70569617 3.8741404e-39
0.56252658 0.0071382574 0.70636463 4.9812419e-39
0.56770378 0.0070703872 0.70616287 4.9812419e-39
0.57189429 0.0070152306 0.70598388 5.4425718e-39
0.57712722 0.0069470275 0.70581871 1.2723755e-38
0.58232719 0.0068803602 0.7057445 1.521228e-38
0.58779722 0.0071304529 0.7056551 1.5304475e-38
0.59289896 0.0075474451 0.70555967 1.5212279e-38
0.59705079 0.0074984683 0.70563579 1.5120083e-38
0.60199285 0.0076624942 0.70584035 1.5765453e-38
0.60732251 0.0081926882 0.70609182 1.8162533e-38
0.61213368 0.0081453733 0.706761 1.8900097e-38
0.61760879 0.0078879204 0.707645 1.8900103e-38
0.62072623 0.0096909152 0.70691979 1.8438766e-38
0.56336498 0.011297473 0.70574188 7.1009553e-39
0.56753272 0.012882272 0.70563561 8.4839093e-39
0.57226646 0.012529858 0.70553339 1.4567659e-38
0.57735181 0.01248926 0.70554918 1.5120083e-38
0.58247024 0.01244849 0.70557445 1.5212279e-38
0.58751959 0.012626084 0.70551354 1.5304475e-38
0.59301585 0.013166129 0.7054233 1.5212279e-38
0.59714586 0.013136656 0.70552546 1.4935692e-38
0.60223359 0.013101127 0.70578676 1.5027888e-38
0.60737598 0.013065076 0.70603108 1.5304475e-38
0.61235863 0.013032102 0.70650762 1.7148386e-38
0.61733198 0.012670329 0.70679253 1.6963996e-38
0.56878561 0.017015638 0.70525378 1.9545835e-38
0.57251275 0.017262716 0.7052353 1.9637669e-38
0.57787955 0.017836638 0.70522332 1.6318626e-38
0.58273679 0.018018505 0.70525759 1.5027888e-38
0.58762181 0.01780206 0.70530909 1.5120083e-38
0.59270704 0.018214067 0.70525926 1.5212279e-38
0.59742582 0.017969327 0.70520133 1.5120083e-38
0.60256523 0.017952964 0.70540589 1.4935692e-38
0.6077795 0.017936332 0.70557219 1.5120083e-38
0.61218828 0.017105389 0.70547438 1.456691e-38
0.61654305 0.016268982 0.7054742 1.5120083e-38
0.58903193 0.022000529 0.70518172 1.4843496e-38
0.59177685 0.02248078 0.70515501 1.5120083e-38
0.59790856 0.021731501 0.70505095 1.5304475e-38
0.60335839 0.021595474 0.70510894 1.5027888e-38
0.60701591 0.021187471 0.7052151 1.5488866e-38
0.59182459 0.027618028 0.70518041 1.4843496e-38
0.59319484 0.032443386 0.7052142 1.5949844e-38
0.59651333 0.034084897 0.70503163 1.5765453e-38
0.59412378 0.035665747 0.70535684 1.7885952e-38
0.59641492 0.035693899 0.70514596 1.8900103e-38
0.45786354 0.19893076 0.70646781 4.7847728e-39
0.46208447 0.19827946 0.7063747 5.796757e-39
0.46724328 0.19884676 0.70618886 6.2570106e-39
0.45338503 0.20308013 0.70644832 4.6007431e-39
0.45658365 0.20197064 0.70841438 4.9688026e-39
0.46263695 0.20073092 0.70855856 6.1648164e-39
0.46752223 0.20144422 0.70828158 6.1648164e-39
0.47216821 0.20231214 0.70767128 6.5346821e-39
0.47564107 0.20382273 0.70633113 7.6439262e-39
0.44912049 0.20832604 0.70643449 4.2323249e-39
0.45197678 0.20697747 0.70820308 4.9684438e-39
0.45504272 0.20555694 0.70950419 5.0606381e-39
0.47311008 0.20631731 0.70920342 6.8090998e-39
0.47714266 0.20850602 0.70764428 6.5343206e-39
0.44476289 0.2143375 0.70521188 3.77243e-39
0.4476065 0.2123998 0.7077328 4.3245192e-39
0.45026517 0.21041329 0.7092883 4.6925786e-39
0.44344684 0.21791352 0.70681781 4.3245192e-39
0.44601148 0.21691829 0.70895213 4.7844141e-39
0.4262192 0.22337413 0.70885068 5.7197612e-39
0.43907619 0.22343116 0.70657325 4.1404894e-39
0.4417775 0.22199358 0.70834607 4.7844141e-39
0.44501019 0.22060984 0.70988196 5.2446678e-39
0.47351629 0.2231735 0.70943856 6.6247114e-39
0.47572571 0.22154222 0.70870674 6.4410404e-39
0.43456912 0.22905962 0.70614225 3.77243e-39
0.43714693 0.22709292 0.7077384 4.5081902e-39
0.44041076 0.22539748 0.70952636 5.1524736e-39
0.46998 0.22823015 0.70964181 6.4410404e-39
0.47180289 0.22573195 0.70945555 6.6247114e-39
0.43358639 0.23260993 0.70674235 4.4163547e-39
0.43604916 0.23157063 0.70921546 4.8766083e-39
0.46909556 0.23258568 0.70844966 6.4410404e-39
0.43312815 0.23762463 0.70718551 4.3245192e-39
0.43546993 0.2362189 0.70977682 4.4167134e-39
0.43313798 0.24230462 0.70751572 4.2323249e-39
0.43599859 0.2435181 0.70977813 5.2446678e-39
0.43360516 0.24553072 0.70641863 4.3245192e-39
0.43735063 0.24732976 0.70783758 4.3245192e-39
0.44060457 0.24926563 0.70922083 3.9564597e-39
0.44266617 0.25151443 0.70724082 4.2326837e-39
0.44775349 0.2531085 0.70763028 4.6007431e-39
0.45222113 0.25186121 0.70879954 6.0729809e-39
0.52892542 -0.33119348 0.7120716 3.043993e-39
0.53115857 -0.33317825 0.71284515 3.043993e-39
0.52399385 -0.32540053 0.71116829 1.3840667e-39
0.5264529 -0.32793838 0.71284658 2.5830022e-39
0.52318239 -0.32233891 0.71223265 2.1220129e-39
0.52351367 -0.31758228 0.71319705 2.8621129e-39
0.53026026 -0.31992656 0.71202171 3.6893456e-39
0.52389795 -0.31255966 0.71234369 2.7878833e-39
0.52454031 -0.30791378 0.71262717 2.7875246e-39
0.52516699 -0.30599415 0.71452379 2.7904e-39
0.52475977 -0.30406854 0.71097946 2.7810576e-39
0.52552992 -0.30203548 0.71282798 2.7896812e-39
0.52666026 -0.2974475 0.71257418 2.7878833e-39
0.53309995 -0.29722497 0.71216506 2.7857281e-39
0.52801228 -0.29218835 0.71244365 2.789321e-39
0.52918589 -0.28781837 0.71265006 2.7889623e-39
0.5297839 -0.284814 0.71095717 3.4339646e-39
0.53057075 -0.28258014 0.71265388 3.0662638e-39
0.53174329 -0.27751565 0.71269947 2.9744298e-39
0.53262818 -0.27290285 0.71243954 3.0662652e-39
0.53371227 -0.26742879 0.71260428 2.9744298e-39
0.534554 -0.2627722 0.7124036 3.0662652e-39
0.5353173 -0.25744978 0.71254885 2.9744298e-39
0.5359444 -0.25216496 0.71224743 3.3421305e-39
0.536538 -0.24777998 0.71264118 3.3421305e-39
0.53718108 -0.24266385 0.71260405 3.0662652e-39
0.53779244 -0.23734988 0.71232539 3.8016667e-39
0.53838211 -0.23259696 0.71260411 3.9856964e-39
0.53898329 -0.2273988 0.71257114 3.1581007e-39
0.5394327 -0.22263071 0.71182406 4.9051262e-39
0.54000837 -0.22104992 0.71492332 2.7904e-39
0.53987139 -0.2180893 0.71119517 4.5305983e-39
0.54031479 -0.2170286 0.713723 2.7896812e-39
0.54074132 -0.21246533 0.71277565 2.788242e-39
0.54130608 -0.20736505 0.71205884 2.7832128e-39
0.54197735 -0.20233865 0.71267021 2.7832128e-39
0.54254657 -0.19750865 0.71292704 2.7857267e-39
0.54300714 -0.19269967 0.71217018 2.7799786e-39
0.55347455 -0.1935491 0.7117992 2.7763856e-39
0.54364038 -0.18741071 0.71276319 2.7828526e-39
0.54447109 -0.18350683 0.71334118 2.782854e-39
0.54530686 -0.18210895 0.71188241 2.8678624e-39
0.54697043 -0.17743392 0.7120558 2.7749493e-39
0.54850185 -0.17283662 0.71222591 2.7742304e-39
0.54954165 -0.16809647 0.71104163 2.8606765e-39
0.55056727 -0.16639657 0.71285027 2.7763856e-39
0.55151772 -0.16226582 0.712641 2.775308e-39
0.55374396 -0.15919131 0.71231282 2.7738703e-39
0.55777907 -0.1576166 0.71281147 3.4131483e-39
0.5624522 -0.15657869 0.71286881 3.5979053e-39
0.56155044 -0.15490074 0.71001023 3.5979053e-39
0.53954709 -0.0028587114 0.71459299 1.2631565e-38
0.45877597 0.20360138 0.71094185 5.520533e-39
0.46233591 0.20331362 0.71100968 6.1648164e-39
0.46754178 0.20392978 0.71075016 5.9807867e-39
0.45390481 0.20836452 0.7106126 5.0606381e-39
0.45748261 0.20769203 0.71206242 5.796757e-39
0.4629547 0.20729618 0.71280426 6.3488461e-39
0.4674592 0.20787235 0.71286213 6.4406816e-39
0.47196549 0.2084797 0.71170664 6.4410404e-39
0.44948837 0.21359886 0.71048534 4.8766083e-39
0.45273784 0.21255846 0.71176887 5.6127272e-39
0.45724717 0.21266881 0.71341437 5.9807867e-39
0.46209595 0.2124694 0.71385735 6.3488461e-39
0.46734014 0.21241722 0.71378291 6.5328759e-39
0.47193274 0.21265385 0.71281958 6.6250701e-39
0.47598121 0.21256427 0.71082473 6.5328759e-39
0.44842425 0.21794967 0.71121436 5.1524736e-39
0.45216018 0.21751708 0.71293843 5.7049215e-39
0.45757383 0.21753208 0.71441686 6.2570106e-39
0.46245712 0.21685785 0.71456152 6.4410404e-39
0.46726304 0.21771176 0.71364844 6.6250701e-39
0.47304139 0.2177127 0.71137881 6.7169056e-39
0.44385076 0.22333238 0.71068388 5.2446678e-39
0.44743606 0.22263373 0.7121489 5.7045627e-39
0.45235458 0.22242312 0.71385109 5.8885925e-39
0.45717186 0.22246449 0.71466732 6.3488461e-39
0.46273261 0.22248885 0.71415031 6.6250701e-39
0.46723849 0.22241603 0.71297532 6.6247114e-39
0.47135487 0.22251074 0.71094447 6.6247114e-39
0.43924102 0.22870977 0.71053034 5.1524736e-39
0.44266233 0.2276828 0.71178907 5.6127272e-39
0.44769344 0.22719683 0.71302646 5.9807867e-39
0.45222977 0.22738877 0.71417648 6.0729809e-39
0.4570666 0.22757098 0.71448833 6.4410404e-39
0.46168423 0.22746164 0.71392083 6.6247114e-39
0.46700898 0.22761007 0.71153784 6.6247114e-39
0.43832141 0.23279153 0.71121907 5.2446678e-39
0.44229519 0.23265284 0.71311373 5.8885925e-39
0.44736484 0.23228872 0.71375966 6.2566519e-39
0.45184621 0.23269296 0.71412814 6.3488461e-39
0.45677012 0.23248653 0.71415651 6.4410404e-39
0.46186569 0.23248936 0.71295786 6.7169056e-39
0.46631265 0.23234896 0.71069914 6.7169056e-39
0.43763915 0.23779552 0.7119422 5.1524736e-39
0.4424454 0.23756295 0.7138809 6.0726222e-39
0.44706014 0.23759688 0.71400219 6.3488461e-39
0.45202005 0.23752494 0.71433902 6.4410404e-39
0.45738357 0.23755482 0.71370852 6.6250701e-39
0.46259469 0.23701039 0.71161997 6.6247114e-39
0.43780836 0.24224265 0.71136707 4.9688026e-39
0.44213507 0.24252823 0.71340191 5.796757e-39
0.44743386 0.24250984 0.71390349 6.2570106e-39
0.45225301 0.24242118 0.71375823 6.3488461e-39
0.45679808 0.2420819 0.71309519 6.5328759e-39
0.46048081 0.24176885 0.71129084 6.5328759e-39
0.43974638 0.24601591 0.71057338 5.2446678e-39
0.44264939 0.24750721 0.71147186 5.1528323e-39
0.44753075 0.2472617 0.71267104 6.0729809e-39
0.4517425 0.2470298 0.71245527 6.3488461e-39
0.45600361 0.24570511 0.71180093 6.3488461e-39
0.44763091 0.25045857 0.71084422 5.2446678e-39
0.53247344 -0.33251396 0.716546 2.9517974e-39
0.52757072 -0.32729888 0.71626961 3.043993e-39
0.5306291 -0.32954282 0.71960008 2.8599577e-39
0.52399492 -0.32215849 0.7172671 2.2142127e-39
0.5242064 -0.31715217 0.71729457 2.8624716e-39
0.52468783 -0.31304201 0.71688467 2.7875246e-39
0.52518892 -0.31123018 0.71874726 2.7904e-39
0.52555519 -0.30750874 0.71766639 2.7904e-39
0.52618003 -0.30245957 0.71726 2.7904e-39
0.52726144 -0.297699 0.71747726 2.7904e-39
0.52861893 -0.29255697 0.71782553 2.7904e-39
0.52966183 -0.28809497 0.7169674 2.7904e-39
0.53031486 -0.28580549 0.71758062 2.7904e-39
0.53111941 -0.28270999 0.71776092 2.7904e-39
0.53216815 -0.27774119 0.71762651 2.7904e-39
0.53313679 -0.27271354 0.71760005 2.7904e-39
0.53411889 -0.26768509 0.71755558 2.7904e-39
0.5347752 -0.26432738 0.71752757 2.7904e-39
0.5352484 -0.26160979 0.71757048 2.7904e-39
0.53579587 -0.25706065 0.71730322 2.7904e-39
0.53637254 -0.25268775 0.71771437 2.7904e-39
0.53700292 -0.24759133 0.71769285 2.7904e-39
0.53760827 -0.24231893 0.71705389 2.7904e-39
0.5382669 -0.23762277 0.71793479 2.7904e-39
0.53886956 -0.23243505 0.71757656 2.7904e-39
0.53947389 -0.22723937 0.71721554 2.7904e-39
0.53382301 -0.22321515 0.71830153 2.8599577e-39
0.53983575 -0.2233469 0.71595049 2.7904e-39
0.54024088 -0.22213031 0.71866751 2.7904e-39
0.5407061 -0.21760999 0.71767884 2.7904e-39
0.5413174 -0.21239619 0.71731162 2.7904e-39
0.54192108 -0.20752302 0.71759993 2.7904e-39
0.55251622 -0.20858052 0.7190485 1.1155308e-38
0.5424394 -0.20269333 0.71791792 2.7904e-39
0.54291141 -0.1975577 0.71732533 2.7904e-39
0.54353929 -0.19226559 0.71774608 2.7904e-39
0.54396057 -0.18799707 0.71752107 2.7904e-39
0.54452765 -0.18283215 0.71789211 2.7904e-39
0.545017 -0.18063022 0.71589684 2.7904e-39
0.54584736 -0.17742728 0.71768147 2.7900399e-39
0.54756647 -0.17292227 0.71707267 2.7900399e-39
0.54884452 -0.16825999 0.71757865 2.7889623e-39
0.55030894 -0.16609798 0.71657103 2.789321e-39
0.54978806 -0.16248626 0.71963006 2.7871658e-39
0.55218101 -0.16133882 0.71788281 2.771355e-39
0.55545312 -0.15909249 0.71748185 3.0447161e-39
0.56093836 -0.15867081 0.71562171 3.5979053e-39
0.56690097 -0.1575094 0.71566886 3.5979053e-39
0.54478949 -0.0044688471 0.71543419 4.9812293e-39
0.53317571 -0.33178878 0.7223798 2.8599577e-39
0.52819234 -0.32688311 0.72271967 2.8599577e-39
0.52424127 -0.32159939 0.72298813 1.9372559e-39
0.52582121 -0.32466179 0.72095197 2.8599577e-39
0.52461982 -0.31778014 0.72223228 2.8606751e-39
0.52505863 -0.31599277 0.72433996 2.8610353e-39
0.52540886 -0.31245703 0.72285891 2.7875246e-39
0.52604759 -0.30736297 0.72216469 2.7904e-39
0.526797 -0.3027904 0.72258478 2.7904e-39
0.52803987 -0.29719576 0.72243345 2.7904e-39
0.52920079 -0.29260656 0.72280359 2.7904e-39
0.52987546 -0.28923449 0.72136807 2.7904e-39
0.53063881 -0.28692394 0.72289878 2.7904e-39
0.53181034 -0.28199077 0.72237474 2.7904e-39
0.53278601 -0.27736491 0.72287184 2.7904e-39
0.53386152 -0.27187377 0.72241527 2.7896812e-39
0.53462785 -0.2676526 0.72276843 2.7904e-39
0.53519773 -0.26506066 0.7234211 2.7904e-39
0.53561532 -0.26215696 0.72259188 2.7904e-39
0.53616005 -0.25781438 0.72247165 2.7904e-39
0.53683996 -0.25248379 0.72272104 2.7904e-39
0.53743941 -0.24723737 0.722094 2.7904e-39
0.53809124 -0.24254397 0.72265494 2.7904e-39
0.53873664 -0.23741955 0.72256589 2.7904e-39
0.53940105 -0.23229747 0.72245157 2.7904e-39
0.53971028 -0.22838598 0.72094268 2.7904e-39
0.54022014 -0.22721554 0.72350639 2.7904e-39
0.54070461 -0.22233008 0.72232932 2.7904e-39
0.54145813 -0.21707854 0.72275817 2.7904e-39
0.54199713 -0.21259961 0.72238564 2.7904e-39
0.54263335 -0.20756413 0.72232193 2.7904e-39
0.54329938 -0.20226121 0.72286272 2.7904e-39
0.54370141 -0.19756953 0.72236258 2.7904e-39
0.55175614 -0.19862747 0.72333622 2.7720738e-39
0.54418069 -0.19291045 0.72236729 2.7904e-39
0.54471368 -0.18753283 0.72247702 2.7904e-39
0.54486024 -0.18358362 0.72092307 2.7904e-39
0.54528362 -0.18201159 0.72319698 2.7904e-39
0.54566383 -0.17795263 0.72259259 2.7904e-39
0.54690313 -0.17243493 0.72259164 2.7904e-39
0.54817516 -0.16753154 0.72268653 2.7907602e-39
0.54914397 -0.16406044 0.72202677 2.9769535e-39
0.55192053 -0.16243795 0.72325391 2.97552e-39
0.55520093 -0.16102128 0.72499484 3.0702309e-39
0.55450845 -0.15978408 0.72224861 2.9650943e-39
0.55763656 -0.15817936 0.72306842 2.866789e-39
0.56159031 -0.15595558 0.72444993 2.8599577e-39
0.52656281 -0.32538778 0.72958279 1.2918683e-39
0.524728 -0.32177886 0.72636086 1.2918697e-39
0.52606732 -0.32242024 0.72902352 1.5688237e-39
0.52489913 -0.31893656 0.72693884 2.6752007e-39
0.52565914 -0.31759688 0.72835207 2.8603164e-39
0.52584034 -0.31254116 0.72752434 2.786447e-39
0.52647281 -0.30783337 0.72731286 2.7904e-39
0.52757066 -0.30226919 0.72750527 2.7904e-39
0.5287044 -0.29758108 0.7276541 2.7904e-39
0.52962303 -0.29309213 0.72664726 2.7904e-39
0.53020823 -0.29163066 0.72828877 2.7904e-39
0.53111976 -0.28743312 0.72777313 2.7904e-39
0.5322035 -0.28265157 0.72746366 2.7904e-39
0.53328985 -0.27726433 0.7276178 2.7904e-39
0.53413051 -0.27268085 0.72742057 2.7904e-39
0.5347935 -0.26924449 0.72751534 2.7904e-39
0.53530377 -0.26658663 0.72766882 2.7904e-39
0.53595304 -0.26261446 0.72751671 2.7904e-39
0.53672659 -0.25736061 0.72764623 2.7904e-39
0.53738958 -0.2521562 0.72730809 2.7904e-39
0.53804159 -0.24750316 0.72750026 2.7904e-39
0.53871042 -0.24241568 0.727382 2.7904e-39
0.54671091 -0.24137875 0.72904497 5.2581945e-39
0.53938621 -0.23752461 0.72759444 3.1580993e-39
0.53969419 -0.23385589 0.726156 2.7904e-39
0.54019624 -0.23225896 0.728311 2.7904e-39
0.5406853 -0.22740291 0.72713715 2.7904e-39
0.54144025 -0.22237907 0.72777659 2.7904e-39
0.54202873 -0.2176936 0.727512 2.7904e-39
