# .PCD v0.7 - Point Cloud Data file format
VERSION 0.7
FIELDS x y z rgb
SIZE 4 4 4 4
TYPE F F F F
COUNT 1 1 1 1
WIDTH 1023
HEIGHT 1
VIEWPOINT 0 0 0 1 0 0 0
POINTS 1023
DATA ascii
0.76665413 -0.3677693 0.6100015 1.1063476e-38
0.7721343 -0.36726037 0.61000156 1.1063476e-38
0.77820998 -0.36768168 0.61000156 1.1063476e-38
0.78377694 -0.36716843 0.61000156 1.1063476e-38
0.78769749 -0.36779881 0.61000168 1.1063476e-38
0.79220635 -0.3673861 0.61000168 1.1063476e-38
0.79759455 -0.3673926 0.61000168 1.1063476e-38
0.80302179 -0.3673982 0.61000174 1.1063476e-38
0.8076213 -0.36798537 0.61000174 1.1063476e-38
0.81167156 -0.36762005 0.6100018 1.1063476e-38
0.8177858 -0.36757496 0.6100018 1.1063476e-38
0.82218194 -0.36768678 0.61000192 1.1063476e-38
0.82631075 -0.36731714 0.61000186 1.1063476e-38
0.83284205 -0.36775422 0.61000192 1.1063476e-38
0.83702612 -0.36738238 0.61000198 1.1063476e-38
0.84153748 -0.36749586 0.61000198 1.1063476e-38
0.84789562 -0.36744833 0.61000204 1.1063476e-38
0.85216224 -0.36707202 0.61000204 1.1063476e-38
0.85707027 -0.36767712 0.61000216 1.1063476e-38
0.86293739 -0.36768499 0.61000216 1.1063476e-38
0.44642854 -0.36323115 0.61161441 1.0879084e-38
0.51297045 -0.36253437 0.61114454 1.097128e-38
0.53566623 -0.36120075 0.61000001 1.097128e-38
0.54151034 -0.36300969 0.61000001 1.097128e-38
0.5474121 -0.36261714 0.61000007 1.097128e-38
0.55217087 -0.36263484 0.61000001 1.097128e-38
0.55737019 -0.36232769 0.61000007 1.097128e-38
0.56240755 -0.36274293 0.61000007 1.097128e-38
0.70694178 -0.36205721 0.61000109 1.097128e-38
0.71147883 -0.36254078 0.61000115 1.097128e-38
0.71680921 -0.36247945 0.61000115 1.097128e-38
0.72217977 -0.36241692 0.61000121 1.097128e-38
0.72681564 -0.36290687 0.61000127 1.097128e-38
0.7320022 -0.36239415 0.61000121 1.097128e-38
0.73748875 -0.36233148 0.61000127 1.097128e-38
0.7430172 -0.36226737 0.61000133 1.097128e-38
0.74779004 -0.36276406 0.61000133 1.097128e-38
0.75339818 -0.36270204 0.61000139 1.097128e-38
0.75742948 -0.36279568 0.61000139 1.097128e-38
0.76121444 -0.36242908 0.61000144 1.097128e-38
0.76692718 -0.36236522 0.6100015 1.097128e-38
0.77268457 -0.36229995 0.61000156 1.1063476e-38
0.77765554 -0.36280695 0.61000156 1.1063476e-38
0.78321838 -0.36227557 0.61000156 1.1063476e-38
0.78769749 -0.36283955 0.61000168 1.1063476e-38
0.79164141 -0.36246544 0.61000162 1.1063476e-38
0.79759455 -0.36240038 0.61000174 1.1063476e-38
0.80359536 -0.36233392 0.61000174 1.1063476e-38
0.8076213 -0.36295977 0.61000174 1.1063476e-38
0.81225175 -0.36252671 0.6100018 1.1063476e-38
0.8177858 -0.36251551 0.6100018 1.1063476e-38
0.82218194 -0.36261272 0.61000192 1.1063476e-38
0.82690221 -0.36217439 0.61000186 1.1063476e-38
0.83224601 -0.36269963 0.61000192 1.1063476e-38
0.83702612 -0.36225891 0.61000198 1.1063476e-38
0.84153742 -0.36235738 0.61000204 1.1063476e-38
0.84728783 -0.36234435 0.61000204 1.1063476e-38
0.85216224 -0.36293295 0.61000204 1.1063476e-38
0.85645533 -0.36254284 0.61000216 1.1063476e-38
0.86293745 -0.36247537 0.6100021 1.1063476e-38
0.54151034 -0.35969776 0.61000001 1.097128e-38
0.5474121 -0.35762575 0.61000007 1.097128e-38
0.55237001 -0.35801902 0.61000007 1.097128e-38
0.55711907 -0.35757071 0.61000007 1.097128e-38
0.70643944 -0.35741907 0.61000109 1.097128e-38
0.71173173 -0.35733876 0.61000109 1.097128e-38
0.71706402 -0.35725704 0.61000115 1.097128e-38
0.72166663 -0.35772848 0.61000121 1.097128e-38
0.72707415 -0.35764849 0.61000127 1.097128e-38
0.7325229 -0.35756704 0.61000121 1.097128e-38
0.73775101 -0.35703287 0.61000127 1.097128e-38
0.74248892 -0.35751048 0.61000133 1.097128e-38
0.74805617 -0.35742846 0.61000133 1.097128e-38
0.75366628 -0.35734496 0.61000139 1.097128e-38
0.75742942 -0.35793719 0.61000139 1.097128e-38
0.7617566 -0.35750362 0.61000144 1.097128e-38
0.76692724 -0.35747507 0.6100015 1.097128e-38
0.77213436 -0.35744542 0.61000144 1.097128e-38
0.7779327 -0.35736147 0.61000156 1.097128e-38
0.78377694 -0.35727596 0.61000156 1.1063476e-38
0.78769749 -0.35788023 0.61000168 1.1063476e-38
0.79220635 -0.35743755 0.61000168 1.1063476e-38
0.79759461 -0.35740817 0.61000174 1.1063476e-38
0.80302179 -0.35737762 0.61000174 1.1063476e-38
0.8076213 -0.35793421 0.61000174 1.1063476e-38
0.81167144 -0.35754192 0.6100018 1.1063476e-38
0.81778592 -0.35745612 0.6100018 1.1063476e-38
0.82218194 -0.35753867 0.61000192 1.1063476e-38
0.82631075 -0.35714155 0.61000186 1.1063476e-38
0.83284205 -0.35753518 0.61000198 1.1063476e-38
0.83702612 -0.3571355 0.61000198 1.1063476e-38
0.84183896 -0.35770363 0.61000204 1.1063476e-38
0.84759176 -0.35767424 0.61000204 1.1063476e-38
0.85216218 -0.35775912 0.61000204 1.1063476e-38
0.85707033 -0.35729679 0.61000216 1.1063476e-38
0.86293745 -0.35726565 0.61000216 1.1063476e-38
0.48667958 -0.35269761 0.61380506 1.097128e-38
0.53566623 -0.35131168 0.61000001 1.097128e-38
0.54741204 -0.35263431 0.61000007 1.097128e-38
0.55237001 -0.35384303 0.61000001 1.097128e-38
0.70669055 -0.35223463 0.61000109 1.097128e-38
0.71198475 -0.35213408 0.61000121 1.097128e-38
0.71655434 -0.35258728 0.61000115 1.097128e-38
0.72192317 -0.35248813 0.61000109 1.097128e-38
0.72733265 -0.35238737 0.61000127 1.097128e-38
0.7320022 -0.35284638 0.61000121 1.097128e-38
0.73722649 -0.35229516 0.61000121 1.097128e-38
0.74301732 -0.35264626 0.61000133 1.097128e-38
0.74832231 -0.35209006 0.61000133 1.097128e-38
0.75313008 -0.3525548 0.61000144 1.097128e-38
0.75742942 -0.35210693 0.61000139 1.097128e-38
0.76121444 -0.35268679 0.61000144 1.097128e-38
0.76692724 -0.35258493 0.6100015 1.097128e-38
0.77268463 -0.35248137 0.6100015 1.097128e-38
0.77793276 -0.35243469 0.61000156 1.097128e-38
0.78321838 -0.3523868 0.61000156 1.097128e-38
0.78769749 -0.35292098 0.61000168 1.1063476e-38
0.79164141 -0.35252061 0.61000168 1.1063476e-38
0.79759455 -0.35241595 0.61000168 1.1063476e-38
0.80359536 -0.35230953 0.61000174 1.1063476e-38
0.8076213 -0.35290861 0.61000174 1.1063476e-38
0.81225169 -0.35244471 0.6100018 1.1063476e-38
0.81778586 -0.35239673 0.6100018 1.1063476e-38
0.82218194 -0.35246465 0.61000192 1.1063476e-38
0.82660645 -0.3525337 0.61000186 1.1063476e-38
0.83224601 -0.35248458 0.61000192 1.1063476e-38
0.83702612 -0.35303673 0.61000198 1.1063476e-38
0.84123594 -0.3526234 0.61000204 1.1063476e-38
0.8475917 -0.35251561 0.6100021 1.1063476e-38
0.85216224 -0.35258529 0.61000204 1.1063476e-38
0.85645533 -0.35216659 0.61000216 1.1063476e-38
0.86324739 -0.35254639 0.61000216 1.1063476e-38
0.53566623 -0.34801531 0.61000001 1.097128e-38
0.54642361 -0.34873676 0.61000001 1.097128e-38
0.71147883 -0.34748286 0.61000115 1.097128e-38
0.71680909 -0.34736478 0.61000115 1.097128e-38
0.72217983 -0.34724507 0.61000121 1.097128e-38
0.72681564 -0.34768564 0.61000121 1.097128e-38
0.73226255 -0.34756708 0.61000127 1.097128e-38
0.73775101 -0.3474468 0.61000127 1.097128e-38
0.74248898 -0.34789285 0.61000133 1.097128e-38
0.74779004 -0.34731942 0.61000133 1.097128e-38
0.75366628 -0.34765297 0.61000139 1.097128e-38
0.75742948 -0.34724841 0.61000139 1.097128e-38
0.76148552 -0.34729993 0.6100015 1.097128e-38
0.76720035 -0.34717613 0.6100015 1.097128e-38
0.77213436 -0.34763044 0.61000144 1.097128e-38
0.7779327 -0.34750795 0.61000162 1.097128e-38
0.783777 -0.34738356 0.61000156 1.097128e-38
0.78769749 -0.34796175 0.61000168 1.097128e-38
0.79220641 -0.34748903 0.61000162 1.097128e-38
0.79759461 -0.34742373 0.61000174 1.1063476e-38
0.80302179 -0.34735709 0.61000174 1.1063476e-38
0.8076213 -0.34788305 0.61000174 1.1063476e-38
0.81167156 -0.34746376 0.6100018 1.1063476e-38
0.81807816 -0.34781271 0.6100018 1.1063476e-38
0.82218194 -0.34739059 0.61000192 1.1063476e-38
0.82660645 -0.34744489 0.61000186 1.1063476e-38
0.83284205 -0.34731615 0.61000192 1.1063476e-38
0.83702612 -0.34791327 0.61000198 1.1063476e-38
0.84183896 -0.34742469 0.61000204 1.1063476e-38
0.84759176 -0.34735703 0.61000204 1.1063476e-38
0.85216218 -0.34741148 0.61000204 1.1063476e-38
0.85676277 -0.34746689 0.61000216 1.1063476e-38
0.86262751 -0.34739774 0.61000216 1.1063476e-38
0.71173173 -0.34227815 0.61000115 1.097128e-38
0.71706402 -0.34213963 0.61000115 1.097128e-38
0.72166651 -0.34256205 0.61000121 1.097128e-38
0.72707415 -0.34242451 0.61000127 1.097128e-38
0.7325229 -0.34228501 0.61000127 1.097128e-38
0.73722649 -0.34271258 0.61000121 1.097128e-38
0.74275309 -0.34257409 0.61000133 1.097128e-38
0.74832231 -0.34243363 0.61000133 1.097128e-38
0.75313008 -0.34286636 0.61000144 1.097128e-38
0.75742942 -0.34238991 0.61000139 1.097128e-38
0.76148552 -0.34242797 0.61000144 1.097128e-38
0.76665413 -0.34234527 0.6100015 1.097128e-38
0.77268463 -0.34266275 0.61000156 1.097128e-38
0.77793276 -0.34258115 0.61000156 1.097128e-38
0.78321838 -0.34249812 0.61000156 1.097128e-38
0.78769749 -0.34201059 0.61000168 1.097128e-38
0.79164147 -0.34257585 0.61000162 1.097128e-38
0.79759455 -0.34243152 0.61000174 1.097128e-38
0.80359536 -0.34228516 0.61000174 1.1063476e-38
0.80766726 -0.34250745 0.61119896 1.1063476e-38
0.81225169 -0.3423627 0.6100018 1.1063476e-38
0.81749356 -0.34281439 0.6100018 1.1063476e-38
0.82218194 -0.34231654 0.61000192 1.1063476e-38
0.82660651 -0.34235615 0.61000186 1.1063476e-38
0.83224601 -0.34226948 0.61000192 1.1063476e-38
0.83702612 -0.3427898 0.61000198 1.1063476e-38
0.84123594 -0.34234846 0.61000204 1.1063476e-38
0.84789562 -0.34268212 0.61000204 1.1063476e-38
0.85216224 -0.34223762 0.61000204 1.1063476e-38
0.85707027 -0.34276432 0.61000216 1.1063476e-38
0.86293745 -0.34267849 0.61000216 1.1063476e-38
0.53139311 -0.33525637 0.61450279 1.9372573e-39
0.71198475 -0.33707076 0.61000121 1.097128e-38
0.71655446 -0.33747533 0.61000115 1.097128e-38
0.72192317 -0.33731899 0.61000115 1.097128e-38
0.72733259 -0.33716065 0.61000121 1.097128e-38
0.7320022 -0.33756989 0.61000121 1.097128e-38
0.73748875 -0.33741221 0.61000127 1.097128e-38
0.74301732 -0.33725247 0.61000133 1.097128e-38
0.74778998 -0.33766651 0.61000133 1.097128e-38
0.75339818 -0.33750749 0.61000139 1.097128e-38
0.75742948 -0.33753136 0.61000139 1.097128e-38
0.7614854 -0.33755592 0.6100015 1.097128e-38
0.76720035 -0.33739403 0.6100015 1.097128e-38
0.77213436 -0.33781555 0.61000144 1.097128e-38
0.77793282 -0.33765444 0.61000156 1.097128e-38
0.783777 -0.3374911 0.61000156 1.097128e-38
0.78769749 -0.3370513 0.61000168 1.097128e-38
0.79220641 -0.33754048 0.61000162 1.097128e-38
0.79759455 -0.33743933 0.61000168 1.097128e-38
0.80302179 -0.33733654 0.61000174 1.097128e-38
0.8076213 -0.33783185 0.61000174 1.097128e-38
0.81167156 -0.33738562 0.6100018 1.097128e-38
0.81807822 -0.33769193 0.6100018 1.097128e-38
0.82218194 -0.33724251 0.61000192 1.097128e-38
0.82690221 -0.33774358 0.61000186 1.097128e-38
0.83254409 -0.33764088 0.61000192 1.097128e-38
0.83702612 -0.33766636 0.61000198 1.097128e-38
0.84153742 -0.33769274 0.61000204 1.097128e-38
0.84728783 -0.33758777 0.61000204 1.097128e-38
0.85216224 -0.33809856 0.61000204 1.1063476e-38
0.85645533 -0.33763987 0.6100021 1.1063476e-38
0.86293745 -0.33746883 0.6100021 1.1063476e-38
0.49904957 -0.33357564 0.61112863 1.097128e-38
0.71147883 -0.33242497 0.61000115 1.097128e-38
0.71680921 -0.33225015 0.61000115 1.097128e-38
0.72217977 -0.33207315 0.61000121 1.097128e-38
0.7268157 -0.3324644 0.61000121 1.097128e-38
0.73226255 -0.33228782 0.61000121 1.097128e-38
0.73775101 -0.33210909 0.61000121 1.097128e-38
0.74248892 -0.33250469 0.61000133 1.097128e-38
0.74805611 -0.33232632 0.61000133 1.097128e-38
0.75366628 -0.33214575 0.61000144 1.097128e-38
0.75742942 -0.3326728 0.61000139 1.097128e-38
0.76175654 -0.33216435 0.61000144 1.097128e-38
0.76665413 -0.3325668 0.6100015 1.097128e-38
0.7724095 -0.33238569 0.6100015 1.097128e-38
0.77821004 -0.33220229 0.61000156 1.097128e-38
0.78321838 -0.33260936 0.61000156 1.097128e-38
0.78769749 -0.33209205 0.61000168 1.097128e-38
0.79164141 -0.33263102 0.61000162 1.097128e-38
0.79759455 -0.33244708 0.61000174 1.097128e-38
0.80359536 -0.33226079 0.61000174 1.097128e-38
0.8076213 -0.33280629 0.61000174 1.097128e-38
0.81225175 -0.33228073 0.6100018 1.097128e-38
0.81749356 -0.33269748 0.6100018 1.097128e-38
0.82218194 -0.33216843 0.61000192 1.097128e-38
0.82631075 -0.33272013 0.61000186 1.097128e-38
0.83254403 -0.33253232 0.61000198 1.097128e-38
0.83702612 -0.33254293 0.61000198 1.097128e-38
0.84153748 -0.33255425 0.61000204 1.097128e-38
0.84789562 -0.33236286 0.61000204 1.097128e-38
0.85216218 -0.33292472 0.61000204 1.097128e-38
0.85707033 -0.33238402 0.61000216 1.097128e-38
0.86293745 -0.33225912 0.61000216 1.097128e-38
0.71173173 -0.32721758 0.61000115 1.097128e-38
0.71706396 -0.32702225 0.61000115 1.097128e-38
0.72166663 -0.32739568 0.61000121 1.097128e-38
0.72733259 -0.32764393 0.61000121 1.097128e-38
0.73226255 -0.32751304 0.61000121 1.097128e-38
0.73722649 -0.32738048 0.61000127 1.097128e-38
0.74301732 -0.32763135 0.61000127 1.097128e-38
0.74805617 -0.327499 0.61000133 1.097128e-38
0.75313008 -0.32736486 0.61000139 1.097128e-38
0.75742948 -0.32781425 0.61000139 1.097128e-38
0.76121444 -0.3273569 0.6100015 1.097128e-38
0.76720035 -0.32761192 0.6100015 1.097128e-38
0.7724095 -0.32747734 0.6100015 1.097128e-38
0.7776556 -0.32734084 0.6100015 1.097128e-38
0.783777 -0.32759866 0.61000156 1.097128e-38
0.78769749 -0.32713276 0.61000168 1.097128e-38
0.79220641 -0.32759184 0.61000162 1.097128e-38
0.79759455 -0.32745489 0.61000168 1.097128e-38
0.80302179 -0.32731599 0.61000174 1.097128e-38
0.8076213 -0.32778069 0.61000174 1.097128e-38
0.81167144 -0.32730752 0.6100018 1.097128e-38
0.81807816 -0.32757115 0.6100018 1.097128e-38
0.82218194 -0.32709441 0.61000192 1.097128e-38
0.82690221 -0.32756406 0.61000186 1.097128e-38
0.83254409 -0.32742378 0.61000198 1.097128e-38
0.83702612 -0.32741946 0.61000198 1.097128e-38
0.84153742 -0.32741579 0.61000204 1.097128e-38
0.84728783 -0.32727259 0.61000204 1.097128e-38
0.85216224 -0.32775089 0.61000204 1.097128e-38
0.85645521 -0.32726365 0.61000216 1.097128e-38
0.86324739 -0.32753491 0.61000216 1.097128e-38
0.35562053 -0.32100824 0.61219215 1.0879084e-38
0.71173179 -0.32251114 0.61000115 1.097128e-38
0.71655446 -0.32236335 0.61000115 1.097128e-38
0.72217977 -0.32259074 0.61000121 1.097128e-38
0.72681564 -0.32295111 0.61000121 1.097128e-38
0.73226255 -0.32273829 0.61000127 1.097128e-38
0.73775101 -0.32252297 0.61000121 1.097128e-38
0.74248898 -0.32288709 0.61000133 1.097128e-38
0.74805611 -0.32267165 0.61000133 1.097128e-38
0.75366628 -0.32245368 0.61000144 1.097128e-38
0.75742942 -0.32295573 0.61000139 1.097128e-38
0.76175654 -0.32241851 0.61000144 1.097128e-38
0.76665413 -0.32278833 0.6100015 1.097128e-38
0.7724095 -0.32256892 0.61000156 1.097128e-38
0.77821004 -0.3223469 0.6100015 1.097128e-38
0.78321838 -0.32272062 0.61000156 1.097128e-38
0.78769749 -0.32217348 0.61000168 1.097128e-38
0.79164147 -0.32268625 0.61000162 1.097128e-38
0.79759461 -0.32246271 0.61000162 1.097128e-38
0.80359536 -0.32223642 0.61000174 1.097128e-38
0.8076213 -0.3227551 0.61000174 1.097128e-38
0.81225175 -0.32219872 0.6100018 1.097128e-38
0.81749356 -0.32258058 0.6100018 1.097128e-38
0.82218194 -0.32303515 0.61000192 1.097128e-38
0.82631075 -0.32254457 0.61000186 1.097128e-38
0.83284205 -0.32279038 0.61000192 1.097128e-38
0.83702612 -0.32229599 0.61000198 1.097128e-38
0.84183896 -0.32275525 0.61000204 1.097128e-38
0.84759176 -0.32259569 0.61000204 1.097128e-38
0.85216218 -0.32257706 0.61000204 1.097128e-38
0.85676283 -0.322559 0.61000216 1.097128e-38
0.86262751 -0.32239619 0.61000216 1.097128e-38
0.44379738 -0.31920785 0.61387259 1.0879084e-38
0.71706396 -0.31757388 0.61000115 1.097128e-38
0.72166663 -0.31791669 0.61000121 1.097128e-38
0.72707415 -0.31768551 0.61000127 1.097128e-38
0.7325229 -0.31745172 0.61000127 1.097128e-38
0.73722649 -0.31779787 0.61000121 1.097128e-38
0.74275321 -0.31756374 0.61000127 1.097128e-38
0.74832231 -0.31732684 0.61000133 1.097128e-38
0.75313014 -0.3176764 0.61000144 1.097128e-38
0.75742942 -0.3171255 0.61000139 1.097128e-38
0.76121444 -0.31761467 0.6100015 1.097128e-38
0.76692724 -0.3173759 0.6100015 1.097128e-38
0.77268463 -0.31713438 0.61000156 1.097128e-38
0.77765566 -0.31748915 0.6100015 1.097128e-38
0.783777 -0.3177062 0.61000156 1.097128e-38
0.78769755 -0.31721425 0.61000168 1.097128e-38
0.79220641 -0.31764331 0.61000162 1.097128e-38
0.79759461 -0.31747049 0.61000168 1.097128e-38
0.80302179 -0.31729546 0.61000174 1.097128e-38
0.8076213 -0.31772953 0.61000174 1.097128e-38
0.81167156 -0.31722936 0.6100018 1.097128e-38
0.81807816 -0.31745034 0.6100018 1.097128e-38
0.82218194 -0.31796113 0.61000192 1.097128e-38
0.82690221 -0.31738454 0.61000186 1.097128e-38
0.83224601 -0.31775326 0.61000192 1.097128e-38
0.83702612 -0.31717253 0.61000198 1.097128e-38
0.84123594 -0.31768864 0.61000204 1.097128e-38
0.8475917 -0.31743705 0.61000204 1.097128e-38
0.85216224 -0.31740323 0.61000204 1.097128e-38
0.85707033 -0.31785154 0.61000216 1.097128e-38
0.86293745 -0.31767201 0.61000216 1.097128e-38
0.71655446 -0.31291837 0.61000115 1.097128e-38
0.72192317 -0.31266916 0.61000109 1.097128e-38
0.72733265 -0.31241712 0.61000121 1.097128e-38
0.7320022 -0.31274563 0.61000121 1.097128e-38
0.73748875 -0.31249297 0.61000121 1.097128e-38
0.74301732 -0.31223756 0.61000127 1.097128e-38
0.74779004 -0.31256899 0.61000133 1.097128e-38
0.75339818 -0.31231284 0.61000139 1.097128e-38
0.75742948 -0.31226698 0.61000139 1.097128e-38
0.76175654 -0.31267267 0.61000144 1.097128e-38
0.76692724 -0.31248575 0.6100015 1.097128e-38
0.77213436 -0.31229669 0.61000144 1.097128e-38
0.77821004 -0.31249151 0.6100015 1.097128e-38
0.78321838 -0.31283194 0.61000156 1.097128e-38
0.78769755 -0.31225497 0.61000162 1.097128e-38
0.79164141 -0.31274146 0.61000162 1.097128e-38
0.79759461 -0.31247827 0.61000162 1.097128e-38
0.80359536 -0.31221202 0.61000174 1.097128e-38
0.8076213 -0.31270394 0.61000174 1.097128e-38
0.81196165 -0.31265801 0.6100018 1.097128e-38
0.81749344 -0.3124637 0.6100018 1.097128e-38
0.82218194 -0.31288707 0.61000192 1.097128e-38
0.82631075 -0.31236902 0.61000186 1.097128e-38
0.83284205 -0.31257135 0.61000198 1.097128e-38
0.83702612 -0.31204912 0.61000198 1.097128e-38
0.84183896 -0.31247628 0.61000204 1.097128e-38
0.84759176 -0.31227842 0.61000204 1.097128e-38
0.85216218 -0.31222939 0.61000204 1.097128e-38
0.85645533 -0.31273693 0.6100021 1.097128e-38
0.86293745 -0.31246233 0.6100021 1.097128e-38
0.52111435 -0.30911726 0.61457741 7.7455161e-39
0.71680921 -0.3076888 0.61000115 1.097128e-38
0.72217989 -0.30741888 0.61000109 1.097128e-38
0.7268157 -0.30772987 0.61000121 1.097128e-38
0.73226255 -0.30745903 0.61000127 1.097128e-38
0.73775101 -0.30718526 0.61000127 1.097128e-38
0.74248898 -0.30749887 0.61000127 1.097128e-38
0.74832231 -0.30767041 0.61000133 1.097128e-38
0.75339824 -0.30746776 0.61000144 1.097128e-38
0.75742942 -0.30740845 0.61000139 1.097128e-38
0.76121444 -0.30787241 0.6100015 1.097128e-38
0.76692724 -0.30759561 0.6100015 1.097128e-38
0.77268463 -0.30731577 0.6100015 1.097128e-38
0.77765572 -0.30763745 0.6100015 1.097128e-38
0.78349763 -0.30735657 0.61000156 1.097128e-38
0.78769761 -0.30729571 0.61000162 1.097128e-38
0.79220641 -0.30769479 0.61000162 1.097128e-38
0.79759467 -0.30748606 0.61000168 1.097128e-38
0.80302179 -0.30727488 0.61000174 1.097128e-38
0.8076213 -0.30767834 0.61000174 1.097128e-38
0.81196165 -0.30761802 0.6100018 1.097128e-38
0.81807816 -0.3073296 0.6100018 1.097128e-38
0.82218194 -0.30781302 0.61000192 1.097128e-38
0.82690221 -0.30720502 0.61000186 1.097128e-38
0.83224601 -0.30753818 0.61000192 1.097128e-38
0.83702612 -0.30795035 0.61000198 1.097128e-38
0.84123594 -0.3074137 0.61000198 1.097128e-38
0.84789562 -0.30759662 0.61000204 1.097128e-38
0.85216224 -0.30705556 0.61000204 1.097128e-38
0.85737705 -0.307666 0.61033511 1.097128e-38
0.86293745 -0.30725259 0.61000216 1.097128e-38
0.7170639 -0.3024565 0.61000115 1.097128e-38
0.72166663 -0.30275029 0.61000109 1.097128e-38
0.72707415 -0.3024615 0.61000115 1.097128e-38
0.7325229 -0.30216971 0.61000127 1.097128e-38
0.73722649 -0.30246574 0.61000121 1.097128e-38
0.74301732 -0.30261642 0.61000127 1.097128e-38
0.74778998 -0.30291611 0.61000133 1.097128e-38
0.75339818 -0.30262268 0.61000139 1.097128e-38
0.75742948 -0.30254993 0.61000139 1.097128e-38
0.76148552 -0.30247727 0.6100015 1.097128e-38
0.76720035 -0.30217844 0.6100015 1.097128e-38
0.77213436 -0.30248174 0.61000144 1.097128e-38
0.77821004 -0.30263609 0.6100015 1.097128e-38
0.78349769 -0.30241129 0.61000156 1.097128e-38
0.78769761 -0.30233645 0.61000162 1.097128e-38
0.79164141 -0.30279666 0.61000162 1.097128e-38
0.79759473 -0.30249384 0.61000162 1.097128e-38
0.80359536 -0.30218765 0.61000174 1.097128e-38
0.8076213 -0.30265278 0.61000174 1.097128e-38
0.81196165 -0.30257797 0.6100018 1.097128e-38
0.81749344 -0.30234686 0.6100018 1.097128e-38
0.82218194 -0.30273899 0.61000192 1.097128e-38
0.82631075 -0.30219343 0.61000186 1.097128e-38
0.83284205 -0.30235228 0.61000198 1.097128e-38
0.83702612 -0.30282688 0.61000198 1.097128e-38
0.84153742 -0.30275112 0.61000204 1.097128e-38
0.84728783 -0.3025161 0.61000204 1.097128e-38
0.85216224 -0.30291656 0.61000204 1.097128e-38
0.85645533 -0.30236068 0.61000216 1.097128e-38
0.86324739 -0.30252343 0.61000216 1.097128e-38
0.71655434 -0.29780644 0.61000115 1.097128e-38
0.72192329 -0.29750001 0.61000109 1.097128e-38
0.72733265 -0.2971904 0.61000127 1.097128e-38
0.7320022 -0.29746911 0.61000121 1.097128e-38
0.73775101 -0.29759923 0.61000127 1.097128e-38
0.74248898 -0.29788131 0.61000127 1.097128e-38
0.74805617 -0.29756954 0.61000133 1.097128e-38
0.75366628 -0.29725447 0.61000144 1.097128e-38
0.75742942 -0.2976914 0.61000139 1.097128e-38
0.76148552 -0.29760522 0.6100015 1.097128e-38
0.76665413 -0.29736432 0.6100015 1.097128e-38
0.77268463 -0.29749712 0.6100015 1.097128e-38
0.77765566 -0.29778576 0.6100015 1.097128e-38
0.78349763 -0.29746598 0.61000156 1.097128e-38
0.78769761 -0.29737717 0.61000162 1.097128e-38
0.79220641 -0.29774624 0.61000162 1.097128e-38
0.79759467 -0.29750162 0.61000168 1.097128e-38
0.80302179 -0.29725435 0.61000174 1.097128e-38
0.8076213 -0.29762721 0.61000174 1.097128e-38
0.81196165 -0.29753792 0.6100018 1.097128e-38
0.81807816 -0.29720882 0.6100018 1.097128e-38
0.82218194 -0.29766494 0.61000192 1.097128e-38
0.82660645 -0.29757494 0.61000186 1.097128e-38
0.83224601 -0.29732314 0.61000192 1.097128e-38
0.83702612 -0.29770342 0.61000198 1.097128e-38
0.84153748 -0.29761267 0.61000198 1.097128e-38
0.84789562 -0.29727739 0.6100021 1.097128e-38
0.85216218 -0.29774272 0.61000204 1.097128e-38
0.85676277 -0.29765114 0.61000216 1.097128e-38
0.86262751 -0.2973946 0.6100021 1.097128e-38
0.36932063 -0.2948499 0.61194098 1.0879084e-38
0.52278757 -0.29080069 0.61491096 8.2986899e-39
0.72217989 -0.292247 0.61000109 1.097128e-38
0.7268157 -0.2925086 0.61000121 1.097128e-38
0.7325229 -0.29261842 0.61000121 1.097128e-38
0.73722649 -0.29288322 0.61000121 1.097128e-38
0.74275309 -0.29255337 0.61000127 1.097128e-38
0.74832231 -0.29222012 0.61000133 1.097128e-38
0.75313014 -0.29248646 0.61000144 1.097128e-38
0.75742948 -0.29283282 0.61000139 1.097128e-38
0.76148552 -0.29273319 0.6100015 1.097128e-38
0.76720035 -0.29239637 0.6100015 1.097128e-38
0.77213436 -0.29266676 0.61000144 1.097128e-38
0.77793288 -0.29232812 0.6100015 1.097128e-38
0.78349769 -0.2925207 0.61000156 1.097128e-38
0.78769761 -0.29241788 0.61000162 1.097128e-38
0.79164141 -0.29285184 0.61000162 1.097128e-38
0.79759461 -0.29250941 0.61000162 1.097128e-38
0.80330861 -0.2927053 0.61000174 1.097128e-38
0.8076213 -0.29260159 0.61000174 1.097128e-38
0.81196165 -0.2924979 0.6100018 1.097128e-38
0.81749344 -0.29222995 0.6100018 1.097128e-38
0.82218194 -0.29259089 0.61000192 1.097128e-38
0.82660645 -0.29248616 0.61000186 1.097128e-38
0.83254409 -0.29268575 0.61000198 1.097128e-38
0.83702612 -0.29257998 0.61000198 1.097128e-38
0.84153742 -0.29247421 0.61000204 1.097128e-38
0.84728783 -0.29220086 0.61000204 1.097128e-38
0.85216224 -0.29256889 0.61000204 1.097128e-38
0.85676271 -0.29246199 0.6100021 1.097128e-38
0.86293745 -0.29266545 0.61000216 1.097128e-38
0.52324516 -0.28782928 0.61422151 6.4547759e-39
0.72166663 -0.28758389 0.61000109 1.097128e-38
0.72707415 -0.28723752 0.61000115 1.097128e-38
0.7320022 -0.28792131 0.61000121 1.097128e-38
0.73748875 -0.28757372 0.61000127 1.097128e-38
0.74301732 -0.28722262 0.61000127 1.097128e-38
0.74779004 -0.28747147 0.61000133 1.097128e-38
0.75366628 -0.28756246 0.61000144 1.097128e-38
0.75742942 -0.2879743 0.61000139 1.097128e-38
0.76175654 -0.28733337 0.61000144 1.097128e-38
0.76665413 -0.28758582 0.6100015 1.097128e-38
0.77268463 -0.28767854 0.61000156 1.097128e-38
0.77793288 -0.28740135 0.6100015 1.097128e-38
0.78349763 -0.28757539 0.61000156 1.097128e-38
0.78769761 -0.28745863 0.61000162 1.097128e-38
0.79192394 -0.28734168 0.61000162 1.097128e-38
0.79759461 -0.28751719 0.61000168 1.097128e-38
0.80330855 -0.28769407 0.61000174 1.097128e-38
0.8076213 -0.28757602 0.61000174 1.097128e-38
0.81196165 -0.28745785 0.6100018 1.097128e-38
0.8177858 -0.28763622 0.6100018 1.097128e-38
0.82218194 -0.28751683 0.61000192 1.097128e-38
0.82660651 -0.28739741 0.61000186 1.097128e-38
0.83254403 -0.28757718 0.61000198 1.097128e-38
0.83702612 -0.28745654 0.61000198 1.097128e-38
0.84183896 -0.28780684 0.61000204 1.097128e-38
0.84759176 -0.28751704 0.61000204 1.097128e-38
0.85216218 -0.28739506 0.61000204 1.097128e-38
0.85676277 -0.28727287 0.61000216 1.097128e-38
0.86293745 -0.28745577 0.6100021 1.097128e-38
0.52375317 -0.28488344 0.61345601 3.5041542e-39
0.72192329 -0.28233087 0.61000109 1.097128e-38
0.72707415 -0.28248 0.61000121 1.097128e-38
0.73226255 -0.28263023 0.61000127 1.097128e-38
0.73775101 -0.28226152 0.61000127 1.097128e-38
0.74248898 -0.28249311 0.61000127 1.097128e-38
0.74832231 -0.28256369 0.61000133 1.097128e-38
0.75313014 -0.28279799 0.61000144 1.097128e-38
0.75742942 -0.28214407 0.61000139 1.097128e-38
0.76121438 -0.28254256 0.61000144 1.097128e-38
0.76720029 -0.28261423 0.6100015 1.097128e-38
0.77213436 -0.28285185 0.61000144 1.097128e-38
0.77793288 -0.28247458 0.6100015 1.097128e-38
0.78349769 -0.28263015 0.61000156 1.097128e-38
0.78769761 -0.28249934 0.61000162 1.097128e-38
0.79192388 -0.28236836 0.61000162 1.097128e-38
0.79759461 -0.282525 0.61000162 1.097128e-38
0.80330861 -0.28268284 0.61000174 1.097128e-38
0.8076213 -0.28255045 0.61000174 1.097128e-38
0.81196165 -0.28241783 0.6100018 1.097128e-38
0.8177858 -0.28257677 0.6100018 1.097128e-38
0.82218194 -0.28244278 0.61000192 1.097128e-38
0.82690221 -0.28277415 0.61000186 1.097128e-38
0.83254409 -0.28246868 0.61000192 1.097128e-38
0.83702612 -0.28233308 0.61000198 1.097128e-38
0.84123594 -0.28275388 0.61000204 1.097128e-38
0.84789562 -0.28283042 0.61000204 1.097128e-38
0.85216224 -0.28222123 0.61000204 1.097128e-38
0.85707027 -0.28255841 0.61000216 1.097128e-38
0.86293745 -0.28224605 0.61000216 1.097128e-38
0.72217989 -0.27707514 0.61000109 1.097128e-38
0.72707415 -0.27772251 0.61000127 1.097128e-38
0.7325229 -0.27733642 0.61000121 1.097128e-38
0.73722649 -0.27755103 0.61000121 1.097128e-38
0.74301732 -0.27760148 0.61000127 1.097128e-38
0.74779004 -0.27781856 0.61000133 1.097128e-38
0.75339818 -0.27742806 0.61000139 1.097128e-38
0.75742948 -0.27728555 0.61000139 1.097128e-38
0.7617566 -0.2775875 0.61000144 1.097128e-38
0.76665413 -0.27780738 0.6100015 1.097128e-38
0.7724095 -0.27741173 0.61000156 1.097128e-38
0.77793288 -0.27754781 0.6100015 1.097128e-38
0.78349775 -0.27768484 0.61000156 1.097128e-38
0.78769761 -0.27754006 0.61000162 1.097128e-38
0.79192394 -0.27739501 0.61000162 1.097128e-38
0.79759467 -0.27753279 0.61000168 1.097128e-38
0.80330855 -0.27767158 0.61000174 1.097128e-38
0.8076213 -0.27752483 0.61000174 1.097128e-38
0.81196165 -0.27737781 0.6100018 1.097128e-38
0.8177858 -0.27751738 0.6100018 1.097128e-38
0.82218194 -0.27736878 0.61000186 1.097128e-38
0.82631075 -0.27777204 0.61000186 1.097128e-38
0.83254403 -0.27736017 0.61000198 1.097128e-38
0.83702612 -0.27720961 0.61000198 1.097128e-38
0.84183896 -0.2775279 0.61000204 1.097128e-38
0.84728783 -0.27775961 0.61000204 1.097128e-38
0.85216224 -0.27808216 0.61000204 1.097128e-38
0.85645533 -0.27745771 0.61000204 1.097128e-38
0.86324739 -0.27751198 0.61000216 1.097128e-38
0.52489269 -0.27350444 0.61460263 4.8870901e-39
0.52532649 -0.2713114 0.61395133 3.1353731e-39
0.72166663 -0.27241749 0.61000109 1.097128e-38
0.72733259 -0.27244693 0.61000121 1.097128e-38
0.7320022 -0.27264482 0.61000121 1.097128e-38
0.73748875 -0.27223879 0.61000127 1.097128e-38
0.74248898 -0.27287552 0.61000127 1.097128e-38
0.74805617 -0.2724674 0.61000133 1.097128e-38
0.75339824 -0.27258295 0.61000144 1.097128e-38
0.75742942 -0.27242702 0.61000139 1.097128e-38
0.76121444 -0.27280027 0.61000144 1.097128e-38
0.76692724 -0.27238658 0.6100015 1.097128e-38
0.7724095 -0.27250338 0.6100015 1.097128e-38
0.77793288 -0.27262104 0.6100015 1.097128e-38
0.783777 -0.27220097 0.61000156 1.097128e-38
0.78769761 -0.2725808 0.61000162 1.097128e-38
0.79192388 -0.27242166 0.61000162 1.097128e-38
0.79759461 -0.27254057 0.61000162 1.097128e-38
0.80330861 -0.27266037 0.61000174 1.097128e-38
0.8076213 -0.27249926 0.61000174 1.097128e-38
0.81196165 -0.27233779 0.6100018 1.097128e-38
0.8177858 -0.27245796 0.6100018 1.097128e-38
0.822182 -0.27229473 0.61000186 1.097128e-38
0.82690221 -0.27259466 0.61000186 1.097128e-38
0.83254409 -0.27225161 0.61000192 1.097128e-38
0.83702612 -0.27208617 0.61000198 1.097128e-38
0.84123594 -0.27247897 0.61000198 1.097128e-38
0.84789574 -0.27251118 0.61000198 1.097128e-38
0.85216218 -0.27290833 0.61000204 1.097128e-38
0.85676289 -0.27274328 0.61000204 1.097128e-38
0.86262751 -0.27239308 0.61000216 1.097128e-38
0.52576101 -0.26911503 0.61329907 2.2130567e-39
0.7268157 -0.26777408 0.61000121 1.097128e-38
0.73226255 -0.26735097 0.61000127 1.097128e-38
0.73748875 -0.26744664 0.61000127 1.097128e-38
0.74275309 -0.26754305 0.61000127 1.097128e-38
0.74832231 -0.26711339 0.61000133 1.097128e-38
0.75339824 -0.26773784 0.61000139 1.097128e-38
0.75742948 -0.2675685 0.61000139 1.097128e-38
0.76148552 -0.26739869 0.6100015 1.097128e-38
0.76692724 -0.26749644 0.6100015 1.097128e-38
0.7724095 -0.26759496 0.61000156 1.097128e-38
0.7782101 -0.26715672 0.6100015 1.097128e-38
0.7832185 -0.26734382 0.61000156 1.097128e-38
0.78769761 -0.26762155 0.61000162 1.097128e-38
0.79192394 -0.26744831 0.61000162 1.097128e-38
0.79759467 -0.26754838 0.61000162 1.097128e-38
0.80330855 -0.26764908 0.61000174 1.097128e-38
0.8076213 -0.2674737 0.61000174 1.097128e-38
0.81196165 -0.26729777 0.6100018 1.097128e-38
0.8177858 -0.26739854 0.6100018 1.097128e-38
0.822182 -0.26722068 0.61000186 1.097128e-38
0.82631075 -0.26759642 0.61000186 1.097128e-38
0.83284205 -0.26760751 0.61000186 1.097128e-38
0.83702612 -0.26696274 0.61000198 1.097128e-38
0.84183896 -0.26724896 0.61000204 1.097128e-38
0.84728795 -0.26744437 0.61000198 1.097128e-38
0.85216224 -0.2677345 0.61000204 1.097128e-38
0.85676283 -0.26755413 0.61000204 1.097128e-38
0.86293745 -0.26765895 0.61000216 1.097128e-38
0.72707415 -0.26249853 0.61000121 1.097128e-38
0.73226255 -0.26257622 0.61000127 1.097128e-38
0.73748875 -0.26265445 0.61000127 1.097128e-38
0.74301732 -0.26220769 0.61000127 1.097128e-38
0.74779004 -0.26237392 0.61000133 1.097128e-38
0.75366628 -0.26236326 0.61000139 1.097128e-38
0.75742942 -0.26270998 0.61000139 1.097128e-38
0.76148552 -0.26252663 0.6100015 1.097128e-38
0.76692724 -0.26260629 0.6100015 1.097128e-38
0.77268463 -0.26215014 0.61000156 1.097128e-38
0.77765566 -0.26231962 0.6100015 1.097128e-38
0.78377706 -0.26230848 0.61000156 1.097128e-38
0.78769761 -0.26266226 0.61000162 1.097128e-38
0.79192388 -0.26247495 0.61000162 1.097128e-38
0.79759461 -0.26255617 0.61000162 1.097128e-38
0.80330861 -0.26263791 0.61000174 1.097128e-38
0.8076213 -0.2624481 0.61000174 1.097128e-38
0.81196165 -0.26225773 0.6100018 1.097128e-38
0.8177858 -0.26233914 0.6100018 1.097128e-38
0.822182 -0.26214662 0.61000186 1.097128e-38
0.82690221 -0.26241517 0.61000186 1.097128e-38
0.83224612 -0.26259184 0.61000192 1.097128e-38
0.83702612 -0.26286396 0.61000198 1.097128e-38
0.84123594 -0.26220402 0.61000204 1.097128e-38
0.84759182 -0.26275572 0.61000198 1.097128e-38
0.85216218 -0.26256067 0.61000204 1.097128e-38
0.85676289 -0.26236498 0.61000204 1.097128e-38
0.86293745 -0.26244923 0.6100021 1.097128e-38
0.52690274 -0.25771454 0.61444753 2.8584261e-39
0.72733265 -0.25722018 0.61000127 1.097128e-38
0.73226255 -0.25780144 0.61000127 1.097128e-38
0.73775101 -0.25733772 0.61000121 1.097128e-38
0.74248898 -0.25748736 0.61000127 1.097128e-38
0.74832231 -0.25745696 0.61000133 1.097128e-38
0.75313014 -0.25760809 0.61000133 1.097128e-38
0.75742948 -0.25785142 0.61000139 1.097128e-38
0.76148552 -0.25765458 0.6100015 1.097128e-38
0.76720035 -0.25718078 0.6100015 1.097128e-38
0.77213436 -0.25733298 0.61000144 1.097128e-38
0.77821004 -0.25730133 0.6100015 1.097128e-38
0.78321838 -0.25745505 0.61000156 1.097128e-38
0.78769761 -0.25770298 0.61000162 1.097128e-38
0.79192394 -0.25750163 0.61000162 1.097128e-38
0.79759467 -0.25756395 0.61000168 1.097128e-38
0.80330855 -0.25762668 0.61000174 1.097128e-38
0.8076213 -0.25742251 0.61000174 1.097128e-38
0.81225175 -0.25767398 0.6100018 1.097128e-38
0.8177858 -0.25727972 0.6100018 1.097128e-38
0.822182 -0.2570726 0.61000186 1.097128e-38
0.82631075 -0.25742087 0.61000186 1.097128e-38
0.83284217 -0.25738847 0.61000192 1.097128e-38
0.83702612 -0.2577405 0.61000198 1.097128e-38
0.84153742 -0.25753263 0.61000204 1.097128e-38
0.84759188 -0.25759712 0.61000198 1.097128e-38
0.85216224 -0.25738683 0.61000204 1.097128e-38
0.85707033 -0.25764567 0.61000204 1.097128e-38
0.86293745 -0.25723958 0.61000216 1.097128e-38
0.52748454 -0.25476736 0.61357737 1.8442727e-39
0.72681564 -0.25255284 0.61000121 1.097128e-38
0.7325229 -0.2525031 0.61000121 1.097128e-38
0.73722649 -0.25263634 0.61000121 1.097128e-38
0.74301732 -0.25258654 0.61000127 1.097128e-38
0.74779004 -0.25272101 0.61000133 1.097128e-38
0.75339824 -0.25223348 0.61000133 1.097128e-38
0.75742942 -0.25299287 0.61000139 1.097128e-38
0.76175654 -0.25224823 0.61000144 1.097128e-38
0.76665413 -0.25238335 0.6100015 1.097128e-38
0.77268463 -0.25233153 0.6100015 1.097128e-38
0.77765572 -0.25246793 0.6100015 1.097128e-38
0.78377694 -0.25241607 0.61000156 1.097128e-38
0.78769761 -0.25274372 0.61000162 1.097128e-38
0.79192388 -0.25252831 0.61000162 1.097128e-38
0.79759473 -0.25257173 0.61000162 1.097128e-38
0.80330861 -0.25261545 0.61000174 1.097128e-38
0.8076213 -0.25239694 0.61000174 1.097128e-38
0.81167156 -0.25272936 0.6100018 1.097128e-38
0.81807816 -0.25267738 0.6100018 1.097128e-38
0.822182 -0.25199854 0.61000186 1.097128e-38
0.82690221 -0.25223562 0.61000186 1.097128e-38
0.83224601 -0.25237674 0.61000186 1.097128e-38
0.83702612 -0.25261703 0.61000198 1.097128e-38
0.84153748 -0.25239417 0.61000204 1.097128e-38
0.84759176 -0.25243852 0.61000198 1.097128e-38
0.85216218 -0.252213 0.61000204 1.097128e-38
0.85645533 -0.25255474 0.61000204 1.097128e-38
0.86324739 -0.25250047 0.61000216 1.097128e-38
0.72707415 -0.2472745 0.61000121 1.097128e-38
0.7320022 -0.24782053 0.61000121 1.097128e-38
0.73748875 -0.24731953 0.61000115 1.097128e-38
0.74248898 -0.24786973 0.61000127 1.097128e-38
0.74805617 -0.24736525 0.61000133 1.097128e-38
0.75339824 -0.24738836 0.61000133 1.097128e-38
0.75742942 -0.24716265 0.61000139 1.097128e-38
0.76121438 -0.24747041 0.61000144 1.097128e-38
0.76720035 -0.24739869 0.6100015 1.097128e-38
0.77213436 -0.24751802 0.61000144 1.097128e-38
0.77821004 -0.24744594 0.6100015 1.097128e-38
0.78321844 -0.24756631 0.61000156 1.097128e-38
0.78769761 -0.24778444 0.61000162 1.097128e-38
0.79192394 -0.24755496 0.61000162 1.097128e-38
0.79759467 -0.24757951 0.61000168 1.097128e-38
0.80330855 -0.24760421 0.61000174 1.097128e-38
0.8076213 -0.24737133 0.61000174 1.097128e-38
0.81225175 -0.247592 0.6100018 1.097128e-38
0.81749356 -0.24771567 0.6100018 1.097128e-38
0.822182 -0.2479393 0.61000186 1.097128e-38
0.82631075 -0.24724531 0.61000186 1.097128e-38
0.83254409 -0.24773064 0.61000186 1.097128e-38
0.83702612 -0.24749361 0.61000198 1.097128e-38
0.84153742 -0.2472557 0.61000204 1.097128e-38
0.84789574 -0.24774496 0.61000198 1.097128e-38
0.85216224 -0.24703915 0.61000204 1.097128e-38
0.85676283 -0.2478354 0.61000204 1.097128e-38
0.86262751 -0.24739149 0.61000216 1.097128e-38
0.37429121 -0.2440203 0.6128394 1.0879084e-38
0.52907044 -0.24194656 0.61406755 1.5673271e-39
0.72707415 -0.24251701 0.61000127 1.097128e-38
0.73226255 -0.24252218 0.61000121 1.097128e-38
0.73748875 -0.2425274 0.61000127 1.097128e-38
0.74275309 -0.24253267 0.61000127 1.097128e-38
0.74805617 -0.2425379 0.61000133 1.097128e-38
0.75339824 -0.24254324 0.61000133 1.097128e-38
0.75742948 -0.24230413 0.61000139 1.097128e-38
0.76175654 -0.24250241 0.61000144 1.097128e-38
0.76665413 -0.2426049 0.6100015 1.097128e-38
0.77268463 -0.24251291 0.6100015 1.097128e-38
0.77765572 -0.24261622 0.6100015 1.097128e-38
0.78377706 -0.2425236 0.61000156 1.097128e-38
0.78769761 -0.24282517 0.61000162 1.097128e-38
0.79192388 -0.24258164 0.61000162 1.097128e-38
0.79759473 -0.24258731 0.61000162 1.097128e-38
0.80330861 -0.24259298 0.61000174 1.097128e-38
0.8076213 -0.24234575 0.61000174 1.097128e-38
0.81167156 -0.24265122 0.6100018 1.097128e-38
0.81807816 -0.24255662 0.6100018 1.097128e-38
0.822182 -0.24286526 0.61000186 1.097128e-38
0.82660651 -0.24261619 0.61000186 1.097128e-38
0.83254409 -0.24262212 0.61000192 1.097128e-38
0.83702612 -0.24237014 0.61000198 1.097128e-38
0.84183896 -0.24257949 0.61000204 1.097128e-38
0.84728795 -0.2426879 0.61000198 1.097128e-38
0.85216224 -0.24290009 0.61000204 1.097128e-38
0.85676283 -0.24264626 0.61000204 1.097128e-38
0.86293745 -0.2426524 0.61000216 1.097128e-38
0.72707415 -0.23775949 0.61000127 1.097128e-38
0.7325229 -0.23722108 0.61000121 1.097128e-38
0.73748875 -0.23773523 0.61000127 1.097128e-38
0.74301732 -0.23719275 0.61000127 1.097128e-38
0.74805617 -0.23771058 0.61000133 1.097128e-38
0.75366628 -0.23716402 0.61000139 1.097128e-38
0.75742942 -0.23744558 0.61000139 1.097128e-38
0.76121444 -0.23772816 0.61000144 1.097128e-38
0.76720029 -0.23761658 0.6100015 1.097128e-38
0.77213436 -0.23770306 0.61000144 1.097128e-38
0.7782101 -0.23759055 0.6100015 1.097128e-38
0.78321838 -0.2376776 0.61000156 1.097128e-38
0.78769761 -0.2378659 0.61000162 1.097128e-38
0.79192394 -0.2376083 0.61000162 1.097128e-38
0.79759467 -0.2375951 0.61000168 1.097128e-38
0.80330855 -0.23758173 0.61000174 1.097128e-38
0.8076213 -0.23732017 0.61000174 1.097128e-38
0.81225169 -0.23751001 0.61000174 1.097128e-38
0.81749344 -0.23759878 0.6100018 1.097128e-38
0.822182 -0.23779121 0.61000186 1.097128e-38
0.82660645 -0.23752742 0.61000186 1.097128e-38
0.83254409 -0.23751359 0.61000186 1.097128e-38
0.83702612 -0.23724669 0.61000198 1.097128e-38
0.84123594 -0.23754418 0.61000204 1.097128e-38
0.84789562 -0.23742568 0.61000198 1.097128e-38
0.85216218 -0.23772626 0.61000204 1.097128e-38
0.85676283 -0.23745711 0.61000204 1.097128e-38
0.86293745 -0.23744272 0.6100021 1.097128e-38
0.53143853 -0.23275851 0.61340183 1.7520785e-39
0.72733265 -0.23247671 0.61000121 1.097128e-38
0.7320022 -0.23254403 0.61000121 1.097128e-38
0.73775101 -0.23241393 0.61000127 1.097128e-38
0.74248898 -0.23248155 0.61000127 1.097128e-38
0.74832231 -0.2323502 0.61000133 1.097128e-38
0.75313014 -0.23241811 0.61000133 1.097128e-38
0.75742948 -0.23258705 0.61000139 1.097128e-38
0.76148552 -0.23232003 0.6100015 1.097128e-38
0.76665413 -0.23282643 0.6100015 1.097128e-38
0.7724095 -0.23225456 0.6100015 1.097128e-38
0.77765566 -0.23276453 0.6100015 1.097128e-38
0.78377706 -0.23263116 0.61000156 1.097128e-38
0.78769761 -0.23290662 0.61000162 1.097128e-38
0.79192394 -0.23263495 0.61000162 1.097128e-38
0.79759473 -0.23260288 0.61000162 1.097128e-38
0.80330861 -0.23257051 0.61000174 1.097128e-38
0.8076213 -0.23229457 0.61000174 1.097128e-38
0.81167156 -0.23257311 0.6100018 1.097128e-38
0.81807822 -0.23243585 0.6100018 1.097128e-38
0.822182 -0.23271716 0.61000186 1.097128e-38
0.82660651 -0.23243865 0.61000186 1.097128e-38
0.83234799 -0.23228888 0.61031693 1.097128e-38
0.83702612 -0.23212324 0.61000198 1.097128e-38
0.84183896 -0.23230052 0.61000204 1.097128e-38
0.84728795 -0.23237269 0.61000198 1.097128e-38
0.85216224 -0.23255244 0.61000204 1.097128e-38
0.85707033 -0.23273285 0.61000204 1.097128e-38
0.86293745 -0.23223303 0.61000216 1.097128e-38
0.53268278 -0.22626778 0.61441201 2.8584275e-39
0.72681564 -0.2278183 0.61000121 1.097128e-38
0.73226255 -0.2272429 0.61000127 1.097128e-38
0.73722649 -0.22772162 0.61000121 1.097128e-38
0.74301732 -0.22757161 0.61000127 1.097128e-38
0.74779004 -0.22762349 0.61000133 1.097128e-38
0.75366628 -0.22747199 0.61000139 1.097128e-38
0.75742942 -0.2277285 0.61000139 1.097128e-38
0.76148552 -0.22744799 0.6100015 1.097128e-38
0.76692724 -0.22739728 0.6100015 1.097128e-38
0.7724095 -0.22734617 0.6100015 1.097128e-38
0.77793288 -0.22729468 0.6100015 1.097128e-38
0.7832185 -0.22778885 0.61000156 1.097128e-38
0.78769761 -0.22794732 0.61000162 1.097128e-38
0.79192394 -0.22766161 0.61000162 1.097128e-38
0.79759467 -0.22761065 0.61000162 1.097128e-38
0.80330855 -0.22755927 0.61000174 1.097128e-38
0.8076213 -0.22726899 0.61000174 1.097128e-38
0.81225175 -0.227428 0.6100018 1.097128e-38
0.81749356 -0.22748187 0.6100018 1.097128e-38
0.822182 -0.2276431 0.61000186 1.097128e-38
0.82660645 -0.22734986 0.61000186 1.097128e-38
0.83254409 -0.2272965 0.61000186 1.097128e-38
0.83702612 -0.22802447 0.61000198 1.097128e-38
0.84123594 -0.22726925 0.61000198 1.097128e-38
0.84759176 -0.22767712 0.61000198 1.097128e-38
0.85216218 -0.22737861 0.61000204 1.097128e-38
0.85645533 -0.22765176 0.61000204 1.097128e-38
0.86324739 -0.22748899 0.61000216 1.097128e-38
0.49895641 -0.22466168 0.6121282 1.0879084e-38
0.53406143 -0.22364129 0.61237317 1.1989047e-39
0.53544623 -0.22100313 0.61032528 0
0.7232064 -0.22282274 0.61000109 1.097128e-38
0.72707415 -0.22253549 0.61000115 1.097128e-38
0.73226255 -0.22246814 0.61000121 1.097128e-38
0.73748875 -0.22240031 0.61000127 1.097128e-38
0.74248898 -0.22286391 0.61000127 1.097128e-38
0.74805617 -0.2222631 0.61000133 1.097128e-38
0.75313014 -0.22272965 0.61000133 1.097128e-38
0.75742948 -0.22286998 0.61000139 1.097128e-38
0.76148558 -0.22257596 0.6100015 1.097128e-38
0.76692724 -0.22250712 0.6100015 1.097128e-38
0.7724095 -0.22243778 0.6100015 1.097128e-38
0.77793288 -0.22236791 0.6100015 1.097128e-38
0.78349775 -0.22229753 0.61000156 1.097128e-38
0.78769761 -0.22298805 0.61000162 1.097128e-38
0.79192388 -0.22268826 0.61000162 1.097128e-38
0.79759473 -0.22261845 0.61000162 1.097128e-38
0.80330861 -0.22254804 0.61000174 1.097128e-38
0.8076213 -0.22224338 0.61000174 1.097128e-38
0.81167156 -0.22249496 0.6100018 1.097128e-38
0.81807816 -0.22231504 0.6100018 1.097128e-38
0.822182 -0.22256906 0.61000186 1.097128e-38
0.82660651 -0.2222611 0.61000186 1.097128e-38
0.83284217 -0.22264366 0.61000186 1.097128e-38
0.83702612 -0.22290103 0.61000198 1.097128e-38
0.84153742 -0.22259103 0.61000204 1.097128e-38
0.8475917 -0.22251849 0.61000198 1.097128e-38
0.85216224 -0.22220476 0.61000204 1.097128e-38
0.85707033 -0.2223525 0.61000204 1.097128e-38
0.86262751 -0.22238989 0.61000216 1.097128e-38
0.5346182 -0.21845283 0.61440527 2.6743977e-39
0.53565681 -0.21646598 0.61287504 1.5676886e-39
0.72217989 -0.21752635 0.61000109 1.097128e-38
0.72733265 -0.21724994 0.61000127 1.097128e-38
0.73226255 -0.21769337 0.61000115 1.097128e-38
0.73748875 -0.21760812 0.61000127 1.097128e-38
0.74275309 -0.21752228 0.61000127 1.097128e-38
0.74805617 -0.21743575 0.61000133 1.097128e-38
0.75339824 -0.21734864 0.61000133 1.097128e-38
0.75742942 -0.21801144 0.61000139 1.097128e-38
0.76148552 -0.21770394 0.6100015 1.097128e-38
0.76692724 -0.21761699 0.6100015 1.097128e-38
0.7724095 -0.21752939 0.6100015 1.097128e-38
0.77793288 -0.21744114 0.6100015 1.097128e-38
0.78349775 -0.21735224 0.61000156 1.097128e-38
0.78769761 -0.21703692 0.61000162 1.097128e-38
0.79192394 -0.21771492 0.61000162 1.097128e-38
0.79759467 -0.21762621 0.61000162 1.097128e-38
0.80330855 -0.21753681 0.61000174 1.097128e-38
0.8076213 -0.21721782 0.61000174 1.097128e-38
0.81225169 -0.21734603 0.61000174 1.097128e-38
0.81749356 -0.21736498 0.6100018 1.097128e-38
0.822182 -0.21749501 0.61000186 1.097128e-38
0.82690221 -0.21762529 0.61000186 1.097128e-38
0.83224601 -0.21764545 0.61000192 1.097128e-38
0.83702612 -0.21777755 0.61000198 1.097128e-38
0.84153742 -0.21745257 0.61000204 1.097128e-38
0.84759176 -0.21735987 0.61000198 1.097128e-38
0.85216224 -0.21806569 0.61000204 1.097128e-38
0.85645533 -0.21727553 0.61000204 1.097128e-38
0.86293745 -0.21764585 0.61000216 1.097128e-38
0.53718686 -0.21304296 0.61062068 3.6914265e-40
0.72192329 -0.2121736 0.61000109 1.097128e-38
0.72681564 -0.21259706 0.61000121 1.097128e-38
0.7325229 -0.21238776 0.61000127 1.097128e-38
0.73748875 -0.21281596 0.61000127 1.097128e-38
0.74301732 -0.2121778 0.61000127 1.097128e-38
0.74805617 -0.21260841 0.61000133 1.097128e-38
0.75339824 -0.21250352 0.61000133 1.097128e-38
0.75742942 -0.21218121 0.61000139 1.097128e-38
0.76148558 -0.21283191 0.61000144 1.097128e-38
0.76720035 -0.21218309 0.6100015 1.097128e-38
0.7724095 -0.21262102 0.61000156 1.097128e-38
0.77793288 -0.21251437 0.6100015 1.097128e-38
0.78349763 -0.21240695 0.61000156 1.097128e-38
0.78769761 -0.21207766 0.61000162 1.097128e-38
0.79192388 -0.21274158 0.61000162 1.097128e-38
0.79759461 -0.21263401 0.61000162 1.097128e-38
0.80330861 -0.21252558 0.61000174 1.097128e-38
0.8076213 -0.21219224 0.61000174 1.097128e-38
0.81167156 -0.21241681 0.6100018 1.097128e-38
0.81778586 -0.21275684 0.6100018 1.097128e-38
0.822182 -0.21242096 0.61000186 1.097128e-38
0.82631075 -0.21264835 0.61000186 1.097128e-38
0.83284205 -0.21242461 0.61000186 1.097128e-38
0.83702612 -0.21265411 0.61000198 1.097128e-38
0.84153742 -0.2123141 0.61000204 1.097128e-38
0.84789574 -0.21265948 0.61000198 1.097128e-38
0.85216218 -0.21289188 0.61000204 1.097128e-38
0.85676283 -0.21254921 0.61000204 1.097128e-38
0.86293745 -0.21243618 0.6100021 1.097128e-38
0.5374254 -0.20902568 0.61026919 5.5353531e-40
0.71744621 -0.20718521 0.61000109 1.097128e-38
0.72192329 -0.20743324 0.61000109 1.097128e-38
0.72707415 -0.2073115 0.61000127 1.097128e-38
0.7320022 -0.20771973 0.61000121 1.097128e-38
0.73775101 -0.20749013 0.61000127 1.097128e-38
0.74248898 -0.20747574 0.61000127 1.097128e-38
0.74832231 -0.20724344 0.61000133 1.097128e-38
0.75339824 -0.20765841 0.61000139 1.097128e-38
0.75742948 -0.20732267 0.61000139 1.097128e-38
0.76175666 -0.20741728 0.61000144 1.097128e-38
0.76665413 -0.20740239 0.6100015 1.097128e-38
0.7724095 -0.20771262 0.6100015 1.097128e-38
0.77793288 -0.2075876 0.6100015 1.097128e-38
0.78349769 -0.20746166 0.61000156 1.097128e-38
0.78769761 -0.20711839 0.61000162 1.097128e-38
0.79192394 -0.20776825 0.61000162 1.097128e-38
0.79759467 -0.20764181 0.61000168 1.097128e-38
0.80330855 -0.20751433 0.61000174 1.097128e-38
0.8076213 -0.20716664 0.61000174 1.097128e-38
0.81225175 -0.20726404 0.6100018 1.097128e-38
0.8177858 -0.20769741 0.6100018 1.097128e-38
0.822182 -0.20734692 0.61000186 1.097128e-38
0.82690221 -0.20744577 0.61000186 1.097128e-38
0.83224612 -0.20743033 0.61000192 1.097128e-38
0.83702612 -0.20753065 0.61000198 1.097128e-38
0.84183896 -0.20763107 0.61000204 1.097128e-38
0.84728783 -0.20761617 0.61000198 1.097128e-38
0.85216224 -0.20771804 0.61000204 1.097128e-38
0.85676283 -0.20736007 0.61000204 1.097128e-38
0.86293745 -0.20722647 0.61000216 1.097128e-38
0.71299666 -0.20128462 0.61000103 1.097128e-38
0.71706402 -0.20230381 0.61000109 1.097128e-38
0.72192329 -0.20269288 0.61000109 1.097128e-38
0.72707415 -0.20255399 0.61000121 1.097128e-38
0.73226255 -0.20241411 0.61000127 1.097128e-38
0.73722649 -0.2028069 0.61000121 1.097128e-38
0.74275309 -0.20213129 0.61000127 1.097128e-38
0.74779004 -0.20252594 0.61000133 1.097128e-38
0.75366628 -0.20227274 0.61000133 1.097128e-38
0.75742942 -0.20246415 0.61000139 1.097128e-38
0.76121449 -0.20265603 0.61000144 1.097128e-38
0.76720035 -0.20240097 0.6100015 1.097128e-38
0.7724095 -0.20280422 0.61000156 1.097128e-38
0.77793288 -0.20266083 0.6100015 1.097128e-38
