# .PCD v0.7 - Point Cloud Data file format
VERSION 0.7
FIELDS x y z rgb
SIZE 4 4 4 4
TYPE F F F F
COUNT 1 1 1 1
WIDTH 1025
HEIGHT 1
VIEWPOINT 0 0 0 1 0 0 0
POINTS 1025
DATA ascii
0.35245031 0.36763841 0.60999864 1.0694693e-38
0.35737464 0.3675192 0.60972351 1.0694693e-38
0.36213493 0.36759117 0.6099987 1.0694693e-38
0.36726037 0.36750263 0.6099987 1.0694693e-38
0.3723976 0.36754063 0.6099987 1.0694693e-38
0.37758666 0.36757943 0.6099987 1.0694693e-38
0.38285962 0.36748993 0.6099987 1.0694693e-38
0.38734752 0.36746797 0.60999876 1.0694693e-38
0.39249367 0.36744285 0.60999876 1.0694693e-38
0.39782581 0.36766058 0.60999882 1.0694693e-38
0.40243858 0.36763912 0.60999888 1.0694693e-38
0.40709025 0.3676174 0.60999888 1.0694693e-38
0.41250771 0.36764938 0.60999894 1.0694693e-38
0.41793934 0.36756712 0.60999912 1.0694693e-38
0.42272273 0.3675448 0.60999906 1.0694693e-38
0.42754716 0.36752233 0.60999912 1.0694693e-38
0.4324131 0.36749965 0.60999912 1.0694693e-38
0.43732119 0.36747676 0.60999918 1.0694693e-38
0.44249713 0.36732808 0.60957605 1.0694693e-38
0.44726577 0.36743039 0.60999918 1.0694693e-38
0.45230341 0.3674069 0.60999924 1.0694693e-38
0.45738545 0.36738321 0.60999924 1.0694693e-38
0.46251234 0.36735931 0.60999924 1.0694693e-38
0.46768481 0.36733514 0.60999948 1.0694693e-38
0.47307813 0.36757049 0.60999942 1.0694693e-38
0.47746292 0.36755085 0.60999948 1.0694693e-38
0.48188269 0.36753136 0.60999942 1.0694693e-38
0.48722902 0.36750764 0.60999948 1.0694693e-38
0.49262381 0.36748365 0.6099996 1.0694693e-38
0.49806786 0.36745945 0.6099996 1.0694693e-38
0.50264138 0.36770701 0.6099996 1.0694693e-38
0.50703055 0.36758089 0.60991752 1.0694693e-38
0.51283056 0.36739472 0.60999966 1.0694693e-38
0.51751739 0.36710289 0.60999966 1.0694693e-38
0.52224314 0.3673521 0.60999972 1.0694693e-38
0.52796096 0.36732674 0.60999972 1.0694693e-38
0.53276545 0.36730525 0.60999972 1.0694693e-38
0.53761029 0.36728385 0.6099999 1.0694693e-38
0.54249066 0.3675389 0.60999984 1.0694693e-38
0.54741216 0.36724117 0.6099999 1.0694693e-38
0.55256927 0.36732897 0.6099999 1.0694693e-38
0.55937874 0.3671875 0.60999995 1.0694693e-38
0.81137997 0.36867085 0.60569888 1.0694693e-38
0.34243804 0.37232372 0.60999852 1.0694693e-38
0.3473677 0.37260816 0.60999864 1.0694693e-38
0.35218182 0.37255338 0.60999858 1.0694693e-38
0.35727197 0.37255222 0.60999864 1.0694693e-38
0.36240879 0.37255105 0.6099987 1.0694693e-38
0.36736408 0.37249503 0.6099987 1.0694693e-38
0.37239736 0.37254855 0.6099987 1.0694693e-38
0.37748048 0.37260288 0.6099987 1.0694693e-38
0.38257536 0.37254652 0.60999876 1.0694693e-38
0.38706094 0.37254557 0.60999876 1.0694693e-38
0.39249426 0.37254429 0.60999876 1.0694693e-38
0.39797914 0.3725431 0.60999882 1.0694693e-38
0.4025932 0.37254205 0.60999888 1.0694693e-38
0.4072462 0.37254101 0.60999888 1.0694693e-38
0.41262868 0.37248251 0.60999894 1.0694693e-38
0.41809791 0.37253824 0.60999912 1.0694693e-38
0.42288271 0.3725372 0.60999912 1.0694693e-38
0.42770848 0.37253606 0.60999912 1.0694693e-38
0.43257579 0.37253499 0.60999912 1.0694693e-38
0.43748531 0.37253389 0.60999918 1.0694693e-38
0.44243747 0.37253278 0.60999918 1.0694693e-38
0.44743276 0.37253165 0.60999918 1.0694693e-38
0.45247182 0.37253052 0.60999924 1.0694693e-38
0.45755538 0.37252936 0.60999924 1.0694693e-38
0.46268383 0.3725282 0.60999924 1.0694693e-38
0.46785778 0.372527 0.60999936 1.0694693e-38
0.47307795 0.37252587 0.6099993 1.0694693e-38
0.47758871 0.37263718 0.60999948 1.0694693e-38
0.48206025 0.3725242 0.60999948 1.0694693e-38
0.48740816 0.37252298 0.60999954 1.0694693e-38
0.49280459 0.37252176 0.6099996 1.0694693e-38
0.49825025 0.37252054 0.6099996 1.0694693e-38
0.50264126 0.37251964 0.6099996 1.0694693e-38
0.50706714 0.37251857 0.6099996 1.0694693e-38
0.51264393 0.37251732 0.60999966 1.0694693e-38
0.51738292 0.37240002 0.60999966 1.0694693e-38
0.5222429 0.37251475 0.60999972 1.0694693e-38
0.52796072 0.3725135 0.60999972 1.0694693e-38
0.53290331 0.37262997 0.60999972 1.0694693e-38
0.53780496 0.37251163 0.60999984 1.0694693e-38
0.54249066 0.3725107 0.60999984 1.0694693e-38
0.54741216 0.37223265 0.6099999 1.0694693e-38
0.55237013 0.37195167 0.6099999 1.0694693e-38
0.55937874 0.37222672 0.60999995 1.0694693e-38
0.34256381 0.37742406 0.60999852 1.0694693e-38
0.34746805 0.37750813 0.60999864 1.0694693e-38
0.35245031 0.37746823 0.60999864 1.0694693e-38
0.35727143 0.3774896 0.60999864 1.0694693e-38
0.36213496 0.37751114 0.60999864 1.0694693e-38
0.36726043 0.37747049 0.6099987 1.0694693e-38
0.3723976 0.37755632 0.6099987 1.0694693e-38
0.37758666 0.37764347 0.6099987 1.0694693e-38
0.38272411 0.37736142 0.60999876 1.0694693e-38
0.38721091 0.37738034 0.60999876 1.0694693e-38
0.39243552 0.37745857 0.60999876 1.0694693e-38
0.39767289 0.37742466 0.60999882 1.0694693e-38
0.40228438 0.37744412 0.60999888 1.0694693e-38
0.4069348 0.3774637 0.60999888 1.0694693e-38
0.41256872 0.37748739 0.60999906 1.0694693e-38
0.418257 0.37751144 0.60999912 1.0694693e-38
0.42304307 0.37753159 0.60999912 1.0694693e-38
0.42787027 0.37755194 0.60999912 1.0694693e-38
0.43273896 0.37757245 0.60999912 1.0694693e-38
0.43764991 0.37759313 0.60999918 1.0694693e-38
0.4426035 0.37761396 0.60999918 1.0694693e-38
0.44760022 0.37763506 0.60999918 1.0694693e-38
0.45264077 0.37765628 0.60999924 1.0694693e-38
0.45755556 0.37741926 0.60999924 1.0694693e-38
0.46268401 0.37743968 0.60999924 1.0694693e-38
0.46785796 0.37746036 0.60999942 1.0694693e-38
0.47307813 0.37748119 0.60999936 1.0694693e-38
0.47746292 0.37776092 0.60999942 1.0694693e-38
0.48188272 0.3775171 0.60999942 1.0694693e-38
0.48722902 0.37753841 0.60999954 1.0694693e-38
0.49262387 0.37755999 0.6099996 1.0694693e-38
0.49806786 0.37758172 0.6099996 1.0694693e-38
0.50264138 0.3773323 0.6099996 1.0694693e-38
0.50725222 0.37761757 0.6099996 1.0694693e-38
0.51283056 0.37763983 0.60999966 1.0694693e-38
0.51751751 0.37765837 0.60999972 1.0694693e-38
0.52224314 0.37767735 0.60999972 1.0694693e-38
0.52796096 0.37770018 0.60999978 1.0694693e-38
0.53276545 0.37799391 0.60999972 1.0694693e-38
0.53761029 0.37773955 0.60999984 1.0694693e-38
0.54249066 0.3774825 0.60999978 1.0694693e-38
0.54721469 0.37750018 0.60999984 1.0694693e-38
0.55237013 0.3769629 0.6099999 1.0694693e-38
0.5588761 0.37754366 0.60999995 1.0694693e-38
0.34268916 0.38252622 0.60999852 1.0602497e-38
0.3474212 0.3825703 0.60999864 1.0694693e-38
0.35219446 0.38261479 0.60999864 1.0694693e-38
0.35727194 0.38242695 0.60999864 1.0694693e-38
0.36240882 0.38247368 0.60999864 1.0694693e-38
0.36736405 0.38246387 0.60999864 1.0694693e-38
0.37239733 0.38256422 0.6099987 1.0694693e-38
0.37748048 0.38266593 0.6099987 1.0694693e-38
0.38272437 0.38241738 0.6099987 1.0694693e-38
0.3872112 0.38245714 0.60999876 1.0694693e-38
0.39254469 0.38256943 0.60999876 1.0694693e-38
0.39782578 0.38230723 0.60999882 1.0694693e-38
0.40243858 0.38234717 0.60999888 1.0694693e-38
0.40709025 0.38238737 0.60999888 1.0694693e-38
0.41250774 0.38249156 0.609999 1.0694693e-38
0.41793934 0.38248155 0.60999912 1.0694693e-38
0.42272273 0.38252294 0.60999906 1.0694693e-38
0.42754722 0.38256466 0.60999912 1.0694693e-38
0.4324131 0.38260674 0.60999912 1.0694693e-38
0.43732119 0.38264921 0.60999918 1.0694693e-38
0.44227189 0.38269204 0.60999918 1.0694693e-38
0.44743294 0.38248196 0.60999918 1.0694693e-38
0.45247206 0.38252443 0.60999924 1.0694693e-38
0.45772582 0.3823109 0.60999924 1.0694693e-38
0.46285576 0.38235301 0.60999924 1.0694693e-38
0.46803132 0.38239548 0.60999948 1.0694693e-38
0.47325301 0.38243836 0.60999948 1.0694693e-38
0.47746292 0.38247299 0.60999942 1.0694693e-38
0.48170537 0.38250774 0.60999948 1.0694693e-38
0.48705015 0.38255161 0.60999954 1.0694693e-38
0.49244323 0.38259584 0.6099996 1.0694693e-38
0.4980678 0.38237607 0.6099996 1.0694693e-38
0.50264126 0.3821449 0.6099996 1.0694693e-38
0.50725216 0.38244858 0.6099996 1.0694693e-38
0.5128305 0.38249314 0.60999966 1.0694693e-38
0.51751739 0.38253045 0.60999966 1.0694693e-38
0.52224314 0.38256827 0.60999972 1.0694693e-38
0.52796096 0.38261393 0.60999978 1.0694693e-38
0.53276545 0.38292685 0.60999972 1.0694693e-38
0.53761029 0.38269186 0.6099999 1.0694693e-38
0.54249066 0.38245428 0.60999984 1.0694693e-38
0.54741216 0.38276926 0.6099999 1.0694693e-38
0.55237013 0.38197413 0.6099999 1.0694693e-38
0.55837345 0.38201812 0.6099999 1.0694693e-38
0.34243801 0.38762397 0.60999864 1.0602497e-38
0.3474218 0.38746172 0.60999864 1.0602497e-38
0.35246322 0.38753223 0.60999858 1.0602497e-38
0.35727146 0.38736436 0.60999864 1.0694693e-38
0.36213496 0.38743123 0.60999864 1.0694693e-38
0.3672604 0.38743833 0.60999864 1.0694693e-38
0.3723976 0.38757202 0.6099987 1.0694693e-38
0.37759396 0.38734877 0.6099987 1.0694693e-38
0.38272411 0.38747334 0.60999876 1.0694693e-38
0.38721091 0.38753405 0.60999876 1.0694693e-38
0.39243549 0.38766095 0.60999876 1.0694693e-38
0.39782611 0.38743356 0.60999882 1.0694693e-38
0.40243891 0.38749495 0.60999888 1.0694693e-38
0.40709049 0.38755685 0.60999888 1.0694693e-38
0.41262868 0.3873263 0.609999 1.0694693e-38
0.41809791 0.38745481 0.60999912 1.0694693e-38
0.42288271 0.38751739 0.60999906 1.0694693e-38
0.42770854 0.38758057 0.60999912 1.0694693e-38
0.43257579 0.38764429 0.60999912 1.0694693e-38
0.43748531 0.38770854 0.60999918 1.0694693e-38
0.44243756 0.38751927 0.60999918 1.0694693e-38
0.4472658 0.38732669 0.60999918 1.0694693e-38
0.45230341 0.3873904 0.60999924 1.0694693e-38
0.45738545 0.38745463 0.60999924 1.0694693e-38
0.46251234 0.38751951 0.60999924 1.0694693e-38
0.46768484 0.38758487 0.60999936 1.0694693e-38
0.47290343 0.38765091 0.60999948 1.0694693e-38
0.47746292 0.38718507 0.60999942 1.0694693e-38
0.48188272 0.3875013 0.60999942 1.0694693e-38
0.48722902 0.3875677 0.6099996 1.0694693e-38
0.49262381 0.38763469 0.6099996 1.0694693e-38
0.49788564 0.38743415 0.6099996 1.0694693e-38
0.50251013 0.3873758 0.6099996 1.0694693e-38
0.50725192 0.38754809 0.60999966 1.0694693e-38
0.5128305 0.38734648 0.60999966 1.0694693e-38
0.51751739 0.38740245 0.60999972 1.0694693e-38
0.52224314 0.38745919 0.60999972 1.0694693e-38
0.5279609 0.3875277 0.60999972 1.0694693e-38
0.53276557 0.38785982 0.60999972 1.0694693e-38
0.53761029 0.38764417 0.60999984 1.0694693e-38
0.54249066 0.38742605 0.60999984 1.0694693e-38
0.54741216 0.3877607 0.6099999 1.0694693e-38
0.55237013 0.38698539 0.6099999 1.0694693e-38
0.55837345 0.38705334 0.6099999 1.0694693e-38
0.34270182 0.39249718 0.60999858 1.0602497e-38
0.3474212 0.39235327 0.60999864 1.0602497e-38
0.35219446 0.39244223 0.60999864 1.0602497e-38
0.35722449 0.3924731 0.60999864 1.0602497e-38
0.3622655 0.39262953 0.60999864 1.0694693e-38
0.36736405 0.39243266 0.60999864 1.0694693e-38
0.37239736 0.39257994 0.6099987 1.0694693e-38
0.37748829 0.39237028 0.6099987 1.0694693e-38
0.38272437 0.39252928 0.60999876 1.0694693e-38
0.38721114 0.39261091 0.60999876 1.0694693e-38
0.39255211 0.39240929 0.60999876 1.0694693e-38
0.39782578 0.39255995 0.60999882 1.0694693e-38
0.40243855 0.3926428 0.60999888 1.0694693e-38
0.40709025 0.39272636 0.60999888 1.0694693e-38
0.41256875 0.39233035 0.609999 1.0694693e-38
0.418257 0.39243007 0.60999912 1.0694693e-38
0.42304307 0.39251393 0.60999906 1.0694693e-38
0.42787033 0.39259857 0.60999912 1.0694693e-38
0.43273896 0.39268389 0.60999912 1.0694693e-38
0.43748546 0.39251381 0.60999918 1.0694693e-38
0.44243747 0.39234552 0.60999918 1.0694693e-38
0.44743276 0.39243084 0.60999924 1.0694693e-38
0.45247188 0.39251691 0.60999924 1.0694693e-38
0.45755538 0.39260375 0.60999924 1.0694693e-38
0.46268401 0.39243284 0.60999924 1.0694693e-38
0.46785799 0.39252007 0.6099993 1.0694693e-38
0.47307813 0.39260808 0.60999936 1.0694693e-38
0.47733715 0.39230612 0.60999936 1.0694693e-38
0.48188257 0.39249378 0.60999948 1.0694693e-38
0.48722887 0.39258271 0.60999954 1.0694693e-38
0.49262387 0.3924073 0.6099996 1.0694693e-38
0.4980678 0.39249668 0.6099996 1.0694693e-38
0.50264138 0.39257169 0.6099996 1.0694693e-38
0.50725216 0.39264745 0.60999966 1.0694693e-38
0.51283038 0.39246947 0.60999966 1.0694693e-38
0.51765186 0.39266369 0.60999966 1.0694693e-38
0.52224314 0.39235008 0.60999972 1.0694693e-38
0.52796096 0.39244145 0.60999972 1.0694693e-38
0.53276545 0.39279273 0.60999972 1.0694693e-38
0.53761029 0.39259639 0.6099999 1.0694693e-38
0.54249066 0.39239779 0.60999984 1.0694693e-38
0.54741216 0.39275214 0.6099999 1.0694693e-38
0.55237013 0.39199662 0.6099999 1.0694693e-38
0.55737025 0.39235219 0.6099999 1.0694693e-38
0.34243801 0.3973605 0.60999852 1.0602497e-38
0.34737512 0.3974143 0.60999864 1.0602497e-38
0.35232255 0.39759263 0.60999864 1.0602497e-38
0.35732621 0.39742109 0.60999864 1.0602497e-38
0.36226526 0.39759022 0.60999864 1.0602497e-38
0.36726043 0.3974061 0.6099987 1.0602497e-38
0.3723976 0.39758775 0.6099987 1.0602497e-38
0.37759396 0.39741293 0.6099987 1.0602497e-38
0.38272411 0.3975853 0.6099987 1.0694693e-38
0.38721091 0.39768779 0.60999876 1.0694693e-38
0.39244357 0.39749983 0.60999876 1.0694693e-38
0.39797911 0.39744589 0.60999882 1.0694693e-38
0.4025932 0.39754924 0.60999888 1.0694693e-38
0.4072462 0.39765352 0.60999888 1.0694693e-38
0.41250774 0.39733362 0.60999894 1.0694693e-38
0.41793934 0.39739597 0.60999912 1.0694693e-38
0.42272273 0.39750105 0.60999912 1.0694693e-38
0.42754722 0.39760703 0.60999912 1.0694693e-38
0.43241304 0.3977139 0.60999912 1.0694693e-38
0.43764988 0.39732304 0.60999912 1.0694693e-38
0.4426035 0.39742962 0.60999918 1.0694693e-38
0.44760022 0.39753717 0.60999918 1.0694693e-38
0.45264083 0.39764562 0.60999924 1.0694693e-38
0.45755556 0.39749366 0.60999924 1.0694693e-38
0.46268377 0.39734441 0.60999924 1.0694693e-38
0.46785778 0.39745343 0.6099993 1.0694693e-38
0.47307795 0.39756349 0.60999936 1.0694693e-38
0.47746292 0.39739394 0.60999942 1.0694693e-38
0.48188269 0.39748624 0.60999942 1.0694693e-38
0.48722902 0.3975977 0.60999954 1.0694693e-38
0.49262366 0.39744511 0.6099996 1.0694693e-38
0.49806762 0.39755744 0.6099996 1.0694693e-38
0.50264138 0.39738426 0.6099996 1.0694693e-38
0.50725222 0.39747846 0.6099996 1.0694693e-38
0.5128305 0.39759237 0.60999972 1.0694693e-38
0.51751739 0.39795914 0.60999966 1.0694693e-38
0.52224314 0.39724106 0.60999972 1.0694693e-38
0.52796096 0.3973552 0.60999972 1.0694693e-38
0.53276545 0.39772567 0.60999972 1.0694693e-38
0.53761029 0.39754874 0.6099999 1.0694693e-38
0.54249066 0.39736962 0.60999984 1.0694693e-38
0.54741216 0.39774358 0.6099999 1.0694693e-38
0.55237013 0.39700785 0.6099999 1.0694693e-38
0.55737025 0.39738339 0.60999995 1.0694693e-38
0.76037532 0.39518255 0.60753912 1.0694693e-38
0.34256375 0.40246373 0.60999864 1.0602497e-38
0.34746808 0.40266532 0.60999864 1.0602497e-38
0.35232234 0.40250698 0.60999858 1.0602497e-38
0.35722449 0.40234739 0.60999864 1.0602497e-38
0.3622655 0.40255082 0.60999864 1.0602497e-38
0.36720517 0.402587 0.60999864 1.0602497e-38
0.37239736 0.40259561 0.6099987 1.0602497e-38
0.37748832 0.40243345 0.6099987 1.0602497e-38
0.3828733 0.40240487 0.60999876 1.0602497e-38
0.38736129 0.40252727 0.60999876 1.0602497e-38
0.39255211 0.40261272 0.60999876 1.0602497e-38
0.39767292 0.40232056 0.60999882 1.0602497e-38
0.40228438 0.4024443 0.60999888 1.0602497e-38
0.40693474 0.4025692 0.60999888 1.0602497e-38
0.41245607 0.40236348 0.60999906 1.0602497e-38
0.41809791 0.40237135 0.60999912 1.0602497e-38
0.42288265 0.40249768 0.60999906 1.0602497e-38
0.42770848 0.40262514 0.60999912 1.0602497e-38
0.43257597 0.4025017 0.60999912 1.0694693e-38
0.43732119 0.40237346 0.60999918 1.0694693e-38
0.44227189 0.40250191 0.60999918 1.0694693e-38
0.44726577 0.40263158 0.60999918 1.0694693e-38
0.452472 0.40251091 0.60999924 1.0694693e-38
0.45772582 0.40238827 0.60999924 1.0694693e-38
0.46285576 0.40251917 0.60999924 1.0694693e-38
0.46785799 0.40238678 0.60999936 1.0694693e-38
0.47307813 0.40251881 0.60999936 1.0694693e-38
0.47758871 0.40248346 0.60999948 1.0694693e-38
0.48206019 0.40248355 0.60999948 1.0694693e-38
0.48722902 0.40234879 0.60999954 1.0694693e-38
0.49262387 0.40248284 0.6099996 1.0694693e-38
0.4980678 0.40261811 0.60999954 1.0694693e-38
0.50277251 0.40258241 0.6099996 1.0694693e-38
0.50725216 0.40230954 0.6099996 1.0694693e-38
0.5128305 0.40244567 0.60999966 1.0694693e-38
0.51751739 0.40283123 0.60999966 1.0694693e-38
0.52243292 0.40240869 0.60999972 1.0694693e-38
0.52796096 0.40226892 0.60999972 1.0694693e-38
0.53276557 0.40265861 0.60999972 1.0694693e-38
0.53761029 0.40250102 0.6099999 1.0694693e-38
0.54249066 0.40234137 0.60999984 1.0694693e-38
0.54741216 0.40273502 0.6099999 1.0694693e-38
0.55237013 0.40201911 0.6099999 1.0694693e-38
0.55737025 0.40241456 0.6099999 1.0694693e-38
0.34268916 0.40756896 0.60999864 1.0602497e-38
0.3473677 0.40754536 0.60999864 1.0602497e-38
0.35232258 0.4074212 0.60999852 1.0602497e-38
0.35717025 0.40747949 0.60999864 1.0602497e-38
0.36226526 0.40751147 0.60999864 1.0602497e-38
0.36741185 0.40754351 0.6099987 1.0602497e-38
0.3723976 0.40760344 0.6099987 1.0602497e-38
0.37759396 0.40747705 0.6099987 1.0602497e-38
0.38258877 0.40745246 0.60999876 1.0602497e-38
0.38706091 0.40735358 0.60999876 1.0602497e-38
0.39249426 0.40752587 0.60999876 1.0602497e-38
0.39796507 0.40745535 0.60999882 1.0602497e-38
0.40243855 0.40735087 0.60999888 1.0602497e-38
0.40709025 0.40749636 0.60999888 1.0602497e-38
0.41268069 0.40752965 0.60999906 1.0602497e-38
0.41825694 0.40734872 0.60999912 1.0602497e-38
0.42304307 0.40749636 0.60999906 1.0602497e-38
0.42787027 0.40764523 0.60999912 1.0602497e-38
0.43257579 0.40728635 0.60999912 1.0602497e-38
0.43748531 0.4074356 0.60999918 1.0602497e-38
0.44243747 0.4075861 0.60999918 1.0602497e-38
0.44743294 0.40748277 0.60999918 1.0602497e-38
0.45230341 0.40737391 0.60999924 1.0602497e-38
0.45738545 0.40752611 0.60999924 1.0602497e-38
0.46251234 0.40767971 0.60999924 1.0602497e-38
0.46803132 0.4073256 0.6099993 1.0602497e-38
0.47325301 0.40747967 0.6099993 1.0602497e-38
0.47746292 0.40760398 0.60999942 1.0602497e-38
0.48188272 0.40747198 0.60999942 1.0602497e-38
0.4874081 0.40736943 0.60999954 1.0694693e-38
0.49280453 0.40752625 0.6099996 1.0694693e-38
0.4980678 0.40741247 0.6099996 1.0694693e-38
0.50264138 0.40781224 0.6099996 1.0694693e-38
0.50743741 0.40741473 0.6099996 1.0694693e-38
0.5128305 0.40729898 0.60999972 1.0694693e-38
0.51751745 0.40770325 0.60999966 1.0694693e-38
0.52224314 0.40756714 0.60999972 1.0694693e-38
0.52815253 0.40746149 0.60999978 1.0694693e-38
0.53276557 0.40759155 0.60999972 1.0694693e-38
0.53761029 0.40745327 0.6099999 1.0694693e-38
0.54249066 0.40731314 0.60999972 1.0694693e-38
0.54741216 0.40772641 0.6099999 1.0694693e-38
0.55237013 0.40703037 0.6099999 1.0694693e-38
0.55737031 0.40744579 0.6099999 1.0694693e-38
0.6761145 0.40658593 0.60949892 1.0602497e-38
0.34243804 0.41266063 0.60999864 1.0602497e-38
0.34746805 0.4124487 0.60999864 1.0602497e-38
0.35245034 0.41257468 0.60999858 1.0602497e-38
0.35737315 0.41239032 0.60999864 1.0602497e-38
0.3622655 0.41247204 0.60999864 1.0602497e-38
0.36720511 0.41255429 0.6099987 1.0602497e-38
0.37239733 0.41261131 0.6099987 1.0602497e-38
0.37748832 0.41249657 0.6099987 1.0602497e-38
0.38287324 0.4125182 0.60999876 1.0602497e-38
0.38734749 0.41244018 0.60999876 1.0602497e-38
0.39243549 0.41243833 0.60999876 1.0602497e-38
0.39767289 0.41257182 0.60999882 1.0602497e-38
0.40249535 0.41243771 0.60960627 1.0602497e-38
0.40724617 0.41242561 0.60999888 1.0602497e-38
0.41262868 0.41256064 0.60999882 1.0602497e-38
0.41793936 0.41231045 0.60999912 1.0602497e-38
0.42272273 0.41247916 0.60999912 1.0602497e-38
0.42754728 0.41264939 0.60999912 1.0602497e-38
0.43273896 0.41232878 0.60999912 1.0602497e-38
0.43764988 0.41249985 0.60999918 1.0602497e-38
0.44243759 0.41241229 0.60999918 1.0602497e-38
0.44743276 0.41233006 0.60999918 1.0602497e-38
0.45247182 0.41250333 0.60999924 1.0602497e-38
0.45755538 0.41267815 0.60999924 1.0602497e-38
0.46268401 0.41259599 0.60999924 1.0602497e-38
0.46768484 0.41250762 0.6099993 1.0602497e-38
0.47290343 0.41268477 0.6099993 1.0602497e-38
0.47746292 0.41231608 0.60999942 1.0602497e-38
0.48170543 0.41245812 0.60999948 1.0602497e-38
0.48705006 0.41263714 0.60999954 1.0602497e-38
0.49262381 0.41255915 0.6099996 1.0602497e-38
0.49825019 0.41247958 0.60999954 1.0602497e-38
0.50264126 0.41262484 0.6099996 1.0602497e-38
0.50725216 0.41250926 0.60999966 1.0602497e-38
0.51301754 0.41242844 0.60999972 1.0602497e-38
0.51751739 0.41257533 0.60999966 1.0602497e-38
0.5222432 0.41245806 0.60999972 1.0602497e-38
0.52796096 0.41264331 0.60999978 1.0602497e-38
0.53276545 0.41252449 0.60999972 1.0602497e-38
0.53761029 0.41240561 0.6099999 1.0694693e-38
0.54249066 0.41228497 0.60999984 1.0694693e-38
0.54741216 0.41271788 0.6099999 1.0694693e-38
0.55237013 0.41204157 0.6099999 1.0694693e-38
0.55737025 0.41247702 0.60999995 1.0694693e-38
0.34270185 0.41754016 0.60999858 1.0602497e-38
0.3474212 0.41750938 0.60999864 1.0602497e-38
0.35218179 0.41747817 0.60999858 1.0602497e-38
0.35731921 0.41752329 0.60999864 1.0602497e-38
0.36226526 0.41743279 0.60999864 1.0602497e-38
0.36741191 0.41751269 0.6099987 1.0602497e-38
0.3723976 0.41761911 0.6099987 1.0602497e-38
0.37759393 0.41754115 0.6099987 1.0602497e-38
0.38258883 0.41756308 0.60999876 1.0602497e-38
0.38706094 0.41750592 0.60999876 1.0602497e-38
0.39238566 0.41737697 0.60999876 1.0602497e-38
0.39782581 0.41745925 0.60999882 1.0602497e-38
0.40243858 0.41764656 0.60999888 1.0602497e-38
0.4069348 0.41733712 0.60999888 1.0602497e-38
0.41256872 0.41756329 0.60999888 1.0602497e-38
0.41809788 0.41728789 0.60999912 1.0602497e-38
0.42288271 0.41747791 0.60999906 1.0602497e-38
0.42770848 0.41766959 0.60999912 1.0602497e-38
0.4324131 0.41735315 0.60999912 1.0602497e-38
0.43732119 0.41754588 0.60999918 1.0602497e-38
0.44243768 0.41749251 0.60999918 1.0602497e-38
0.44760028 0.41743928 0.60999918 1.0602497e-38
0.452472 0.41737184 0.60999924 1.0602497e-38
0.45755556 0.41756806 0.60999924 1.0602497e-38
0.46268383 0.41750756 0.60999924 1.0602497e-38
0.46785799 0.41744649 0.60999936 1.0602497e-38
0.47307813 0.41764572 0.60999942 1.0602497e-38
0.47733715 0.41743442 0.60999948 1.0602497e-38
0.48188269 0.41745615 0.60999948 1.0602497e-38
0.48722902 0.41765779 0.60999954 1.0602497e-38
0.49244332 0.41758975 0.6099996 1.0602497e-38
0.4980678 0.41753471 0.60999954 1.0602497e-38
0.50264138 0.41743746 0.6099996 1.0602497e-38
0.50706714 0.41760141 0.60999966 1.0602497e-38
0.51283056 0.41754568 0.60999966 1.0602497e-38
0.51751739 0.41744736 0.60999966 1.0602497e-38
0.52205354 0.41761333 0.60999972 1.0602497e-38
0.52796096 0.417557 0.60999978 1.0602497e-38
0.53276551 0.41745743 0.60999972 1.0602497e-38
0.53761029 0.41735786 0.60999984 1.0602497e-38
0.54249066 0.41725674 0.60999972 1.0602497e-38
0.54741216 0.41770929 0.6099999 1.0602497e-38
0.55270481 0.41739711 0.60982865 1.0602497e-38
0.55737025 0.41750824 0.60999995 1.0602497e-38
0.34243804 0.42239717 0.60999852 1.0602497e-38
0.34737512 0.42256927 0.60999864 1.0602497e-38
0.35245031 0.42240447 0.60999864 1.0602497e-38
0.35721689 0.42244765 0.60999864 1.0602497e-38
0.3622655 0.42239335 0.60999864 1.0602497e-38
0.36720517 0.42252159 0.6099987 1.0602497e-38
0.37239736 0.42262697 0.6099987 1.0602497e-38
0.37748829 0.42255974 0.6099987 1.0602497e-38
0.3828733 0.42263144 0.6099987 1.0602497e-38
0.38721091 0.42234689 0.60999876 1.0602497e-38
0.39260226 0.42245308 0.60999876 1.0602497e-38
0.39782608 0.42258558 0.60999876 1.0602497e-38
0.40259323 0.42255649 0.60999888 1.0602497e-38
0.40709028 0.42226642 0.60999888 1.0602497e-38
0.41250774 0.42256528 0.60999894 1.0602497e-38
0.41809818 0.42250869 0.60999912 1.0602497e-38
0.42304307 0.42247874 0.60999906 1.0602497e-38
0.42770869 0.42243361 0.60999912 1.0602497e-38
0.43257579 0.42239562 0.60999912 1.0602497e-38
0.43748528 0.42261022 0.60999918 1.0602497e-38
0.44243759 0.42257267 0.60999918 1.0602497e-38
0.44726577 0.42252788 0.60999918 1.0602497e-38
0.45247218 0.42249653 0.60999924 1.0602497e-38
0.45749101 0.42229775 0.60972506 1.0602497e-38
0.46268401 0.4224191 0.60999924 1.0602497e-38
0.46785784 0.42237988 0.6099993 1.0602497e-38
0.47307795 0.42260113 0.60999936 1.0602497e-38
0.47746292 0.42252493 0.60999942 1.0602497e-38
0.48188257 0.42244864 0.60999948 1.0602497e-38
0.48722902 0.42240888 0.60999954 1.0602497e-38
0.49262387 0.42263389 0.6099996 1.0602497e-38
0.49788564 0.42258748 0.60999954 1.0602497e-38
0.50264132 0.42225006 0.6099996 1.0602497e-38
0.50725216 0.42270726 0.6099996 1.0602497e-38
0.51283056 0.42239904 0.60999966 1.0602497e-38
0.51751739 0.42231938 0.60999966 1.0602497e-38
0.52224314 0.42278248 0.60999972 1.0602497e-38
0.52796096 0.42247078 0.60999978 1.0602497e-38
0.53276545 0.42239037 0.60999972 1.0602497e-38
0.53741586 0.42257705 0.60999984 1.0602497e-38
0.54249066 0.42222849 0.60999984 1.0602497e-38
0.54741216 0.42270076 0.6099999 1.0602497e-38
0.55237013 0.42206404 0.6099999 1.0602497e-38
0.55737019 0.42253944 0.60999995 1.0602497e-38
0.34256375 0.42750347 0.60999852 1.0602497e-38
0.3473219 0.42765263 0.60999864 1.0602497e-38
0.35219449 0.42754009 0.60999864 1.0602497e-38
0.35731915 0.4273985 0.60999864 1.0602497e-38
0.36226526 0.42735404 0.60999864 1.0602497e-38
0.36741194 0.42748204 0.60999864 9.8649324e-39
0.37239763 0.42763484 0.60999864 1.0602497e-38
0.37759396 0.4276053 0.60999864 1.0602497e-38
0.38257536 0.42743236 0.60999876 1.0602497e-38
0.3872112 0.42742378 0.6099987 1.0602497e-38
0.39238566 0.42757893 0.6099987 1.0602497e-38
0.39782581 0.42771196 0.60999876 1.0602497e-38
0.40228444 0.42744455 0.60999888 1.0602497e-38
0.40709057 0.42743596 0.60999876 1.0602497e-38
0.4126288 0.4274044 0.60999894 1.0602497e-38
0.41809803 0.42772952 0.60999906 1.0602497e-38
0.42272273 0.42745727 0.60999906 1.0602497e-38
0.42770889 0.42744854 0.60999906 1.0602497e-38
0.43273902 0.42744032 0.60999906 1.0602497e-38
0.43748546 0.42741552 0.60999912 1.0602497e-38
0.4424375 0.42739886 0.60999906 1.0602497e-38
0.44743282 0.42763719 0.60999906 1.0602497e-38
0.452472 0.42762128 0.60999924 1.0602497e-38
0.45738548 0.42759767 0.60999912 1.0602497e-38
0.46285582 0.42733908 0.60999924 1.0602497e-38
0.46803132 0.42758137 0.6099993 1.0602497e-38
0.47307813 0.42755643 0.60999936 1.0602497e-38
0.47758871 0.4276171 0.60999948 1.0602497e-38
0.48188272 0.42744115 0.60999942 1.0602497e-38
0.48722887 0.42742389 0.6099996 1.0602497e-38
0.49262387 0.42740652 0.6099996 1.0602497e-38
0.4980678 0.42765534 0.60999954 1.0602497e-38
0.50251013 0.42747664 0.6099996 1.0602497e-38
0.50725222 0.42753831 0.6099996 1.0602497e-38
0.51264381 0.42751318 0.60999972 1.0602497e-38
0.51751739 0.42719141 0.60999966 1.0602497e-38
0.5222432 0.4276734 0.60999972 1.0602497e-38
0.52796096 0.42738456 0.60999978 1.0602497e-38
0.53276551 0.42732331 0.60999972 1.0602497e-38
0.53761029 0.42781189 0.60999984 1.0602497e-38
0.54249066 0.42720032 0.60999984 1.0602497e-38
0.54741216 0.42769217 0.6099999 1.0602497e-38
0.55237013 0.4270753 0.6099999 1.0602497e-38
0.55737025 0.42757067 0.6099999 1.0602497e-38
0.34256357 0.43237242 0.60999829 1.0694693e-38
0.34752113 0.43252182 0.60999829 1.0694693e-38
0.35232276 0.43269491 0.60999823 1.0694693e-38
0.35727158 0.43250614 0.60999823 1.0694693e-38
0.36226562 0.43231478 0.60999829 1.0694693e-38
0.36720535 0.43248916 0.60999823 1.0694693e-38
0.37239757 0.43264294 0.60999823 1.0694693e-38
0.37753782 0.43245026 0.60999823 1.0694693e-38
0.38285983 0.43250358 0.60999823 1.0694693e-38
0.3872112 0.43250093 0.60999823 1.0694693e-38
0.39260265 0.43265733 0.60999823 1.0694693e-38
0.39797944 0.43260312 0.60999823 1.0694693e-38
0.40243897 0.43235499 0.60999823 1.0694693e-38
0.4070906 0.43260583 0.60999817 1.0694693e-38
0.41256914 0.43240669 0.60999817 1.0694693e-38
0.41809854 0.43245351 0.60999817 1.0694693e-38
0.42288318 0.43245864 0.60999817 1.0694693e-38
0.42770895 0.43271455 0.60999817 1.0694693e-38
0.43241364 0.43246084 0.60999817 1.0694693e-38
0.4374862 0.43247432 0.60999817 1.0694693e-38
0.44260401 0.43248859 0.60999817 1.0694693e-38
0.44743353 0.43248495 0.60999817 1.0694693e-38
0.45247254 0.43249041 0.60999811 1.0694693e-38
0.45755577 0.43249542 0.60999894 1.0602497e-38
0.4625124 0.43249226 0.60999924 1.0602497e-38
0.46785799 0.43250698 0.60999936 1.0602497e-38
0.47325301 0.43252102 0.60999936 1.0602497e-38
0.47746292 0.43273506 0.60999942 1.0602497e-38
0.48206025 0.4324429 0.60999948 1.0602497e-38
0.48722899 0.43243891 0.60999954 1.0602497e-38
0.49262372 0.43244427 0.6099996 1.0602497e-38
0.4980678 0.4324497 0.6099996 1.0602497e-38
0.50264138 0.43267682 0.6099996 1.0602497e-38
0.50725216 0.43236938 0.60999966 1.0602497e-38
0.5128305 0.43264413 0.60999966 1.0602497e-38
0.51738298 0.43248194 0.60999966 1.0602497e-38
0.52224314 0.43256432 0.60999972 1.0602497e-38
0.52776951 0.43256155 0.60999978 1.0602497e-38
0.53276545 0.43225631 0.60999972 1.0602497e-38
0.53761029 0.43276417 0.60999984 1.0602497e-38
0.54249066 0.43217206 0.60999972 1.0602497e-38
0.54741216 0.43268365 0.6099999 1.0602497e-38
0.55237013 0.43208656 0.6099999 1.0602497e-38
0.55737019 0.43260184 0.6099999 1.0602497e-38
0.34256387 0.4372412 0.60999829 1.0694693e-38
0.34732199 0.43743482 0.60999829 1.0694693e-38
0.35232252 0.4376092 0.60999823 1.0694693e-38
0.35722464 0.43761286 0.60999829 1.0694693e-38
0.36239576 0.43751994 0.60999829 1.0694693e-38
0.36741212 0.43745139 0.60999823 1.0694693e-38
0.37239778 0.43765077 0.60999823 1.0694693e-38
0.37753734 0.43748209 0.60999823 1.0694693e-38
0.38257563 0.43754315 0.60999823 1.0694693e-38
0.38721144 0.43757775 0.60999817 1.0694693e-38
0.39255244 0.43759662 0.60999823 1.0694693e-38
0.39767322 0.43746805 0.60999823 1.0694693e-38
0.40243924 0.43750277 0.60999817 1.0694693e-38
0.40724653 0.43753853 0.60999823 1.0694693e-38
0.41250816 0.43740782 0.60999817 1.0694693e-38
0.41809863 0.43742564 0.60999817 1.0694693e-38
0.42304364 0.43746156 0.60999817 1.0694693e-38
0.42770913 0.43747866 0.60999817 1.0694693e-38
0.43257633 0.43750548 0.60999817 1.0694693e-38
0.43748602 0.43753254 0.60999817 1.0694693e-38
0.44227242 0.43755078 0.60999817 1.0694693e-38
0.4476009 0.43734199 0.60999817 1.0694693e-38
0.45247269 0.43735886 0.60999817 1.0694693e-38
0.45755562 0.43738532 0.60999888 1.0602497e-38
0.46268377 0.43767071 0.60999924 1.0602497e-38
0.46768484 0.43743032 0.6099993 1.0602497e-38
0.47290343 0.43771869 0.6099993 1.0602497e-38
0.47746292 0.4374471 0.60999942 1.0602497e-38
0.48170537 0.43767953 0.60999948 1.0602497e-38
0.48740816 0.43746406 0.60999954 1.0602497e-38
0.49262387 0.43748206 0.6099996 1.0602497e-38
0.49806768 0.43751043 0.60999954 1.0602497e-38
0.50264126 0.43748951 0.6099996 1.0602497e-38
0.50725198 0.43746886 0.60999966 1.0602497e-38
0.5128305 0.4374975 0.60999966 1.0602497e-38
0.51751751 0.43774691 0.60999972 1.0602497e-38
0.52224314 0.43745521 0.60999972 1.0602497e-38
0.52796096 0.43775716 0.60999978 1.0602497e-38
0.53276545 0.43718922 0.60999972 1.0602497e-38
0.53761029 0.43771642 0.6099999 1.0602497e-38
0.54249066 0.43714389 0.60999984 1.0602497e-38
0.54741216 0.43767512 0.6099999 1.0602497e-38
0.55237013 0.43709776 0.6099999 1.0602497e-38
0.55737025 0.43763307 0.6099999 1.0602497e-38
0.34268922 0.4423506 0.60999829 1.0694693e-38
0.34752113 0.44230562 0.60999829 1.0694693e-38
0.35232279 0.44252351 0.60999823 1.0694693e-38
0.35732636 0.44256517 0.60999829 1.0694693e-38
0.36212215 0.44246322 0.60999829 1.0694693e-38
0.36720532 0.44245642 0.60999829 1.0694693e-38
0.37239754 0.4426586 0.60999829 1.0694693e-38
0.37753794 0.44251385 0.60999823 1.0694693e-38
0.38272434 0.44236699 0.60999823 1.0694693e-38
0.38721117 0.44265467 0.60999823 1.0694693e-38
0.39249459 0.44250792 0.60999823 1.0694693e-38
0.39782611 0.44235891 0.60999823 1.0694693e-38
0.40243894 0.44265062 0.60999823 1.0694693e-38
0.40693516 0.44244304 0.60999823 1.0694693e-38
0.41245648 0.4424358 0.60999817 1.0694693e-38
0.41809836 0.44264644 0.60999817 1.0694693e-38
0.42272323 0.44243583 0.60999817 1.0694693e-38
0.42770928 0.44249347 0.60999817 1.0694693e-38
0.43273956 0.44255224 0.60999817 1.0694693e-38
0.43748587 0.44233781 0.60999817 1.0694693e-38
0.44243798 0.44264007 0.60999817 1.0694693e-38
0.4472664 0.44242483 0.60999811 1.0694693e-38
0.4524729 0.4424836 0.60999817 1.0694693e-38
0.45772606 0.44254318 0.60999888 1.0602497e-38
0.46268401 0.44258222 0.60999924 1.0602497e-38
0.46785784 0.44263253 0.6099993 1.0602497e-38
0.47307813 0.44268334 0.60999942 1.0602497e-38
0.47733715 0.44256279 0.60999948 1.0602497e-38
0.48188269 0.44268128 0.60999942 1.0602497e-38
0.48705012 0.4427228 0.60999954 1.0602497e-38
0.49262381 0.44225466 0.6099996 1.0602497e-38
0.4980678 0.44257113 0.60999954 1.0602497e-38
0.50264138 0.44230214 0.6099996 1.0602497e-38
0.50725216 0.44256818 0.60999966 1.0602497e-38
0.5128305 0.44235075 0.60999966 1.0602497e-38
0.51751739 0.44261894 0.60999966 1.0602497e-38
0.52224314 0.44234616 0.60999972 1.0602497e-38
0.52796096 0.44267091 0.60999978 1.0602497e-38
0.53276545 0.44212213 0.60999972 1.0602497e-38
0.53761029 0.44266871 0.6099999 1.0602497e-38
0.54249066 0.44211569 0.60999972 1.0602497e-38
0.54741216 0.44266653 0.6099999 1.0602497e-38
0.55237013 0.44210902 0.6099999 1.0602497e-38
0.55737031 0.44266427 0.6099999 1.0602497e-38
0.34243807 0.44743395 0.60999829 1.0694693e-38
0.34746811 0.44738939 0.60999835 1.0694693e-38
0.35232249 0.44743785 0.60999829 1.0694693e-38
0.35722458 0.44748718 0.60999835 1.0694693e-38
0.36239576 0.44744241 0.60999829 1.0694693e-38
0.36741206 0.44742063 0.60999829 1.0694693e-38
0.37239778 0.44766644 0.60999829 1.0694693e-38
0.37753725 0.44754559 0.60999823 1.0694693e-38
0.38272464 0.44742286 0.60999823 1.0694693e-38
0.38736159 0.44750038 0.60999829 1.0694693e-38
0.39243582 0.44741839 0.60999823 1.0694693e-38
0.39782631 0.44748518 0.60999823 1.0694693e-38
0.40259352 0.44756407 0.60999823 1.0694693e-38
0.40709057 0.44737577 0.60999823 1.0694693e-38
0.41268113 0.44761005 0.60999823 1.0694693e-38
0.41825739 0.4476296 0.60999817 1.0694693e-38
0.42288318 0.4474389 0.60999823 1.0694693e-38
0.4277091 0.44750828 0.60999817 1.0694693e-38
0.43241364 0.44756794 0.60999817 1.0694693e-38
0.4376505 0.44740719 0.60999817 1.0694693e-38
0.44243813 0.44746622 0.60999817 1.0694693e-38
0.44743338 0.44753695 0.60999817 1.0694693e-38
0.45247269 0.44760832 0.60999817 1.0694693e-38
0.45738569 0.44766933 0.60999882 1.0602497e-38
0.46285576 0.44750518 0.60999924 1.0602497e-38
0.46785799 0.44756591 0.6099993 1.0602497e-38
0.47307795 0.44763869 0.6099993 1.0602497e-38
0.47746292 0.44765595 0.60999942 1.0602497e-38
0.48188269 0.44741106 0.60999942 1.0602497e-38
0.48722902 0.44774792 0.60999948 1.0602497e-38
0.49280459 0.44730407 0.6099996 1.0602497e-38
0.4980678 0.44736549 0.60999954 1.0602497e-38
0.50277257 0.44750515 0.6099996 1.0602497e-38
0.50725216 0.44739926 0.6099996 1.0602497e-38
0.51283038 0.4474737 0.60999966 1.0602497e-38
0.51751739 0.44749093 0.60999966 1.0602497e-38
0.5222429 0.44750881 0.60999972 1.0602497e-38
0.52796096 0.44758469 0.60999972 1.0602497e-38
0.53276545 0.4470551 0.60999972 1.0602497e-38
0.53761029 0.44762102 0.6099999 1.0602497e-38
0.54249066 0.44708741 0.60999984 1.0602497e-38
0.54741216 0.447658 0.6099999 1.0602497e-38
0.55237013 0.44712028 0.6099999 1.0602497e-38
0.55737031 0.44769552 0.6099999 1.0602497e-38
0.56341952 0.44749379 0.60999995 1.0602497e-38
0.34256378 0.45254326 0.60999829 1.0694693e-38
0.34742123 0.45244852 0.60999829 1.0694693e-38
0.35232273 0.45235208 0.60999829 1.0694693e-38
0.35717037 0.45261693 0.60999829 1.0694693e-38
0.36213505 0.45262039 0.60999829 1.0694693e-38
0.36720529 0.45242375 0.60999829 1.0694693e-38
0.37239757 0.4526743 0.60999829 1.0694693e-38
0.37753779 0.45257741 0.60999823 1.0694693e-38
0.38272434 0.45247889 0.60999823 1.0694693e-38
0.38707474 0.45255697 0.60999829 1.0694693e-38
0.39238599 0.45235544 0.60999823 1.0694693e-38
0.39782608 0.45261154 0.60999823 1.0694693e-38
0.40228471 0.45244518 0.60999823 1.0694693e-38
0.40709084 0.45254529 0.60999823 1.0694693e-38
0.41262916 0.45263913 0.60999823 1.0694693e-38
0.41793975 0.45257983 0.60999823 1.0694693e-38
0.42304355 0.45244399 0.60999817 1.0694693e-38
0.42770901 0.45227242 0.60999817 1.0694693e-38
0.43257636 0.45261478 0.60999817 1.0694693e-38
0.43732175 0.45244312 0.60999817 1.0694693e-38
0.4424383 0.45254642 0.60999817 1.0694693e-38
0.44743353 0.4523842 0.60999817 1.0694693e-38
0.45247254 0.45247683 0.60999817 1.0694693e-38
0.45755571 0.45256984 0.60999894 1.0602497e-38
0.46251234 0.45265245 0.60999924 1.0602497e-38
0.46803132 0.45251146 0.60999936 1.0602497e-38
0.47307813 0.45259401 0.60999936 1.0602497e-38
0.47746292 0.45236802 0.60999942 1.0602497e-38
0.48188251 0.45240355 0.60999948 1.0602497e-38
0.48722902 0.45249897 0.60999954 1.0602497e-38
0.49244332 0.45258364 0.6099996 1.0602497e-38
0.49825019 0.45243868 0.6099996 1.0602497e-38
0.50264132 0.45273006 0.6099996 1.0602497e-38
0.50725216 0.45223033 0.60999966 1.0602497e-38
0.5128305 0.45259666 0.60999966 1.0602497e-38
0.51751751 0.45236301 0.60999972 1.0602497e-38
0.52224314 0.45267141 0.60999972 1.0602497e-38
0.52796096 0.45249844 0.60999978 1.0602497e-38
0.53262764 0.45240948 0.60999972 1.0602497e-38
0.53761029 0.45257336 0.60999984 1.0602497e-38
0.54249066 0.45205924 0.60999984 1.0602497e-38
0.54741216 0.45264938 0.6099999 1.0602497e-38
0.55237013 0.45213151 0.6099999 1.0602497e-38
0.55737019 0.45272669 0.6099999 1.0602497e-38
0.56341952 0.45254913 0.60999995 1.0602497e-38
0.79505241 0.45128199 0.60693979 1.0602497e-38
0.34256357 0.45741215 0.60999829 1.0694693e-38
0.34737518 0.45750692 0.60999835 1.0694693e-38
0.35245049 0.45751104 0.60999829 1.0694693e-38
0.3573733 0.45753646 0.60999829 1.0694693e-38
0.36240894 0.45760217 0.60999829 1.0694693e-38
0.36741209 0.45738983 0.60999829 1.0694693e-38
0.37239778 0.45768213 0.60999829 1.0694693e-38
0.37748066 0.45742035 0.60999823 1.0694693e-38
0.38272464 0.45753482 0.60999829 1.0694693e-38
0.38736159 0.45765552 0.60999823 1.0694693e-38
0.39260268 0.4574385 0.60999823 1.0694693e-38
0.39797941 0.45750588 0.60999823 1.0694693e-38
0.40243894 0.45735875 0.60999823 1.0694693e-38
0.40709057 0.4577148 0.60999823 1.0694693e-38
0.41238752 0.45745423 0.60999823 1.0694693e-38
0.41809836 0.45756301 0.60999823 1.0694693e-38
0.4227232 0.45741406 0.60999823 1.0694693e-38
0.42770928 0.45753795 0.60999817 1.0694693e-38
0.43257651 0.45739937 0.60999817 1.0694693e-38
0.43748584 0.45751247 0.60999817 1.0694693e-38
0.44243816 0.45762661 0.60999817 1.0694693e-38
0.44743365 0.45748651 0.60999817 1.0694693e-38
0.45247269 0.45734534 0.60999817 1.0694693e-38
0.45698854 0.45673177 0.6099987 1.0602497e-38
0.46268356 0.45628291 0.6099993 1.0602497e-38
0.46742511 0.45610386 0.6099993 1.0602497e-38
0.47307855 0.45624533 0.60999942 1.0602497e-38
0.47775641 0.45587942 0.60999948 1.0602497e-38
0.48232648 0.45611376 0.60999942 1.0602497e-38
0.48722857 0.45593035 0.60999954 1.0602497e-38
0.49262339 0.45630741 0.60999954 1.0602497e-38
0.4976123 0.45612389 0.60999948 1.0602497e-38
0.50264132 0.45593849 0.6099996 1.0602497e-38
0.50725251 0.45598778 0.60999966 1.0602497e-38
0.5132978 0.45613426 0.60999972 1.0602497e-38
0.51783115 0.45599365 0.60999966 1.0602497e-38
0.5227176 0.45623642 0.60999972 1.0602497e-38
0.52796042 0.4560473 0.60999978 1.0602497e-38
0.53276551 0.45609817 0.60999978 1.0602497e-38
0.53760976 0.45615 0.60999984 1.0602497e-38
0.54216391 0.45581198 0.60999984 1.0602497e-38
0.54741162 0.45625436 0.6099999 1.0602497e-38
0.55203819 0.45591402 0.6099999 1.0602497e-38
0.55736971 0.4563604 0.6099999 1.0602497e-38
0.56341952 0.45591938 0.60999995 1.0602497e-38
0.34256384 0.46228096 0.60999829 1.0694693e-38
0.34732196 0.46258852 0.60999829 1.0694693e-38
0.35219467 0.46263817 0.60999829 1.0694693e-38
0.35717034 0.46249065 0.60999829 1.0694693e-38
0.36213502 0.46254036 0.60999829 1.0694693e-38
0.36720532 0.46239108 0.60999829 1.0694693e-38
0.37239748 0.46268997 0.60999829 1.0694693e-38
0.37758681 0.46246922 0.60999835 1.0694693e-38
0.38272434 0.46259078 0.60999829 1.0694693e-38
0.38706124 0.46246657 0.60999829 1.0694693e-38
0.39238596 0.46255741 0.60999823 1.0694693e-38
0.39767319 0.46236387 0.60999823 1.0694693e-38
0.40243924 0.4625065 0.60999823 1.0694693e-38
0.4072465 0.46265107 0.60999823 1.0694693e-38
0.41268107 0.4624545 0.60999823 1.0694693e-38
0.41825742 0.46254826 0.60999823 1.0694693e-38
0.42288309 0.46241912 0.60999823 1.0694693e-38
0.42770904 0.46255276 0.60999823 1.0694693e-38
0.43257663 0.46243575 0.60999817 1.0694693e-38
0.43765038 0.46258408 0.60999817 1.0694693e-38
0.44243795 0.46245274 0.60999823 1.0694693e-38
0.44743347 0.46258894 0.60999817 1.0694693e-38
0.45247287 0.46247002 0.60999817 1.0694693e-38
0.45585504 0.462219 0.60999811 1.0694693e-38
0.89206958 0.46309015 0.60676003 1.0694693e-38
0.34268916 0.46739328 0.60999829 1.0694693e-38
0.3475211 0.46746418 0.60999835 1.0694693e-38
0.35246339 0.46757597 0.60999835 1.0694693e-38
0.35737327 0.46741208 0.60999829 1.0694693e-38
0.36226556 0.46774787 0.60999829 1.0694693e-38
0.36741209 0.46735907 0.60999829 1.0694693e-38
0.37239772 0.46769783 0.60999829 1.0694693e-38
0.37748066 0.4674834 0.60999829 1.0694693e-38
0.38272464 0.46764672 0.60999829 1.0694693e-38
0.38721114 0.46731377 0.60999829 1.0694693e-38
0.39260259 0.46764246 0.60999829 1.0694693e-38
0.39782605 0.46725827 0.60999823 1.0694693e-38
0.40243894 0.46765432 0.60999823 1.0694693e-38
0.40693507 0.46754846 0.60999823 1.0694693e-38
0.41262907 0.46748289 0.60999823 1.0694693e-38
0.41793975 0.46749434 0.60999823 1.0694693e-38
0.42304349 0.46742639 0.60999823 1.0694693e-38
0.42770895 0.46731687 0.60999823 1.0694693e-38
0.43257633 0.46772403 0.60999817 1.0694693e-38
0.43732166 0.4676156 0.60999823 1.0694693e-38
0.44260398 0.46754703 0.60999823 1.0694693e-38
0.44743338 0.46743622 0.60999817 1.0694693e-38
0.45247263 0.46759474 0.60999817 1.0694693e-38
0.45585507 0.46761566 0.60999817 1.0694693e-38
0.34243801 0.47247064 0.60999829 1.0694693e-38
0.34732196 0.47237042 0.60999835 1.0694693e-38
0.35219461 0.47246554 0.60999829 1.0694693e-38
0.35717037 0.47236446 0.60999829 1.0694693e-38
0.36226529 0.47270852 0.60999829 1.0694693e-38
0.36720535 0.47235829 0.60999829 1.0694693e-38
0.37239748 0.47270566 0.60999829 1.0694693e-38
0.37743211 0.47235209 0.60999829 1.0694693e-38
0.38272434 0.4727028 0.60999829 1.0694693e-38
0.38721141 0.47239062 0.60999829 1.0694693e-38
0.39255241 0.47258011 0.60999829 1.0694693e-38
0.39782631 0.47238454 0.60999823 1.0694693e-38
0.40259352 0.47257128 0.60999829 1.0694693e-38
0.40709057 0.47248477 0.60999823 1.0694693e-38
0.41256908 0.47248265 0.60999823 1.0694693e-38
0.41809836 0.47247958 0.60999823 1.0694693e-38
0.42262125 0.47239363 0.60964453 1.0694693e-38
0.42770922 0.47258246 0.60999823 1.0694693e-38
0.43257651 0.47250864 0.60999817 1.0694693e-38
0.43748578 0.47268716 0.60999823 1.0694693e-38
0.44227242 0.47259909 0.60999823 1.0694693e-38
0.44760084 0.4725534 0.60999817 1.0694693e-38
0.45247251 0.47246322 0.60999817 1.0694693e-38
0.45585504 0.47301245 0.60999817 1.0694693e-38
0.34256375 0.47758293 0.60999835 1.0694693e-38
0.34752107 0.47724798 0.60999835 1.0694693e-38
0.35232273 0.47762564 0.60999829 1.0694693e-38
0.35737324 0.47728777 0.60999829 1.0694693e-38
0.36226556 0.47766912 0.60999829 1.0694693e-38
0.36741209 0.47732827 0.60999829 1.0694693e-38
0.37239772 0.4777135 0.60999829 1.0694693e-38
0.37764287 0.47736955 0.60999829 1.0694693e-38
0.38287351 0.47753263 0.60999829 1.0694693e-38
0.38721117 0.47746745 0.60999829 1.0694693e-38
0.3924945 0.47748953 0.60999829 1.0694693e-38
0.39782608 0.47751093 0.60999829 1.0694693e-38
0.40228471 0.47744542 0.60999829 1.0694693e-38
0.40709084 0.47765434 0.60999829 1.0694693e-38
0.41250804 0.47748154 0.60999823 1.0694693e-38
0.41825742 0.47746691 0.60999823 1.0694693e-38
0.42288309 0.47739941 0.60999823 1.0694693e-38
0.42770904 0.47759736 0.60999823 1.0694693e-38
0.43257657 0.47754508 0.60999823 1.0694693e-38
0.43748599 0.47749245 0.60999823 1.0694693e-38
0.44243795 0.47769338 0.60999823 1.0694693e-38
0.44726628 0.47762603 0.60999823 1.0694693e-38
0.45247269 0.47733176 0.60999817 1.0694693e-38
0.45585504 0.47763816 0.60999817 1.0694693e-38
0.34256354 0.48245183 0.60999835 1.0694693e-38
0.34742153 0.48249581 0.6099984 1.0694693e-38
0.3523224 0.48253998 0.60999846 1.0694693e-38
0.35731927 0.48241746 0.60999835 1.0694693e-38
0.36226532 0.48262984 0.60999829 1.0694693e-38
0.36720529 0.48232558 0.60999829 1.0694693e-38
0.37239748 0.48272133 0.60999829 1.0694693e-38
0.37743208 0.48241469 0.60999829 1.0694693e-38
0.38258898 0.48256052 0.60999829 1.0694693e-38
0.38721141 0.48254433 0.60999829 1.0694693e-38
0.39243573 0.48239818 0.60999829 1.0694693e-38
0.39782631 0.48263723 0.60999829 1.0694693e-38
0.40243888 0.48236245 0.60999829 1.0694693e-38
0.40709072 0.48257759 0.60999823 1.0694693e-38
0.41245645 0.48250771 0.60999823 1.0694693e-38
0.41793972 0.4824087 0.60999829 1.0694693e-38
0.42288339 0.48264247 0.60999823 1.0694693e-38
0.42770892 0.48236138 0.60999823 1.0694693e-38
0.43257645 0.4825815 0.60999823 1.0694693e-38
0.43748608 0.48255065 0.60999823 1.0694693e-38
0.44243807 0.48251957 0.60999823 1.0694693e-38
0.44743347 0.48248816 0.60999817 1.0694693e-38
0.45247278 0.48245648 0.60999817 1.0694693e-38
0.45585504 0.48226395 0.60999817 1.0694693e-38
0.34256378 0.48732054 0.60999835 1.0694693e-38
0.3473219 0.48774216 0.6099984 1.0694693e-38
0.3523227 0.4874543 0.60999835 1.0694693e-38
0.35727149 0.48752239 0.60999835 1.0694693e-38
0.36226556 0.48759034 0.60999846 1.0694693e-38
0.36741206 0.48729753 0.60999829 1.0694693e-38
0.37239772 0.48772916 0.60999829 1.0694693e-38
0.37764287 0.48743412 0.60999829 1.0694693e-38
0.38287348 0.48764592 0.60999829 1.0694693e-38
0.38721114 0.48762125 0.60999829 1.0694693e-38
0.39238596 0.48733357 0.60999829 1.0694693e-38
0.39782608 0.48776355 0.60999829 1.0694693e-38
0.40243921 0.48751029 0.60999829 1.0694693e-38
0.40709051 0.4872548 0.60999829 1.0694693e-38
0.41268104 0.48769 0.60999829 1.0694693e-38
0.4180983 0.48739615 0.60999829 1.0694693e-38
0.42288327 0.48763588 0.60999823 1.0694693e-38
0.42748359 0.48757723 0.60966748 1.0694693e-38
0.43257633 0.48736611 0.60999823 1.0694693e-38
0.43748596 0.48760891 0.60999823 1.0694693e-38
0.44243824 0.48759973 0.60999823 1.0694693e-38
0.44743329 0.48733538 0.60999817 1.0694693e-38
0.45247263 0.48758119 0.60999823 1.0694693e-38
0.45585507 0.48766071 0.60999823 1.0694693e-38
0.34268916 0.49243596 0.60999835 1.0694693e-38
0.3475211 0.49262264 0.6099984 1.0694693e-38
0.35232243 0.49236855 0.6099984 1.0694693e-38
0.35722449 0.49262676 0.6099984 1.0694693e-38
0.36226529 0.49255103 0.6099984 1.0694693e-38
0.36720529 0.49229294 0.60999835 1.0694693e-38
0.37239748 0.492737 0.60999835 1.0694693e-38
0.37743208 0.49247724 0.60999829 1.0694693e-38
0.3825756 0.49242896 0.60999829 1.0694693e-38
0.38721141 0.49269807 0.60999829 1.0694693e-38
0.39260259 0.49242359 0.60999829 1.0694693e-38
0.39782619 0.49240166 0.60999829 1.0694693e-38
0.40243894 0.49265805 0.60999829 1.0694693e-38
0.40709084 0.49242422 0.60999829 1.0694693e-38
0.41256869 0.49252033 0.60999829 1.0694693e-38
0.41809857 0.49261692 0.60999829 1.0694693e-38
0.4228282 0.49227837 0.60972095 1.0694693e-38
0.42770904 0.49264178 0.60999829 1.0694693e-38
0.43257657 0.49265435 0.60999823 1.0694693e-38
0.43748578 0.49241418 0.60999823 1.0694693e-38
0.4424381 0.49267992 0.60999829 1.0694693e-38
0.44760075 0.49245548 0.60999823 1.0694693e-38
0.45247251 0.4924497 0.60999823 1.0694693e-38
0.45585501 0.4930574 0.60999823 1.0694693e-38
0.34243804 0.49750727 0.60999846 1.0694693e-38
0.34732193 0.4975242 0.60999852 1.0694693e-38
0.3523227 0.49728289 0.60999846 1.0694693e-38
0.35717031 0.49775416 0.6099984 1.0694693e-38
0.36226559 0.49751168 0.60999852 1.0694693e-38
0.36741203 0.49726671 0.6099984 1.0694693e-38
0.37239769 0.49774483 0.60999835 1.0694693e-38
0.37764284 0.49749869 0.60999829 1.0694693e-38
0.38272434 0.49726018 0.60999829 1.0694693e-38
0.38721114 0.49777493 0.60999829 1.0694693e-38
0.39238599 0.49753553 0.60999829 1.0694693e-38
0.39782628 0.49728385 0.60999829 1.0694693e-38
0.40259352 0.49757853 0.60999829 1.0694693e-38
0.40709057 0.49759379 0.60999829 1.0694693e-38
0.41245645 0.49734911 0.60999829 1.0694693e-38
